# .PCD v.7 - Point Cloud Data file format
#TIMESTAMP 1112234
#VDY_TX 10.0
VERSION .7
FIELDS x y z
SIZE 4 4 4
TYPE F F F
COUNT 1 1 1
WIDTH 1512
HEIGHT 1
VIEWPOINT 0 0 0 1 0 0 0
POINTS 1512
DATA ascii
18.2782784 -5.6549835 -1.2619574
17.9827061 -6.8423557 -1.2167609
17.8669529 -8.0180178 -1.1982431
17.6708584 -8.9645939 -1.1672347
17.4443626 -9.7997713 -1.1312590
17.2888088 -10.4483576 -1.1060309
17.0394802 -10.6708117 -1.0674162
17.2317581 -10.6646223 -1.0967486
17.3213463 -10.0959301 -1.1118715
17.4535103 -9.4433699 -1.1333811
17.6749191 -8.6164322 -1.1683798
17.8358898 -7.5544548 -1.1940012
18.1091118 -6.4548302 -1.2360940
18.3321228 -5.2489195 -1.2701783
18.5221310 -3.9484274 -1.2989600
18.4524441 -2.5232697 -1.2883255
18.5733147 -1.1487991 -1.3064716
18.5928402 0.3281894 -1.3093874
1.5070584 0.1467552 1.2722758
1.1636647 0.2011896 1.3241563
1.0380493 0.2598985 1.3431361
1.0181328 0.3308145 1.3461585
0.8805478 0.3493562 1.3669796
0.8366953 0.3897619 1.3736601
0.7110863 0.4178339 1.3927840
0.7506583 0.3692271 1.3866780
0.8598003 0.3677563 1.3701358
0.9142570 0.3295205 1.3618673
1.0516652 0.3051373 1.3410829
1.0456164 0.2267593 1.3419923
1.2060436 0.1692587 1.3177558
18.3720284 1.2014635 -1.2760613
18.2727604 -0.2580217 -1.2610221
18.3685818 -1.7232747 -1.2755804
18.1943798 -3.0795786 -1.2493832
18.4502144 -4.5502682 -1.2880914
17.8183556 -5.7201304 -1.1924043
17.5767841 -6.9018569 -1.1552963
17.4195786 -7.9283271 -1.1305563
17.2826729 -8.8830366 -1.1084518
17.0701656 -9.7088223 -1.0745535
16.8962326 -10.0893583 -1.0471721
17.0944233 -9.4844608 -1.0787275
17.3851337 -8.7042103 -1.1242902
17.4783497 -7.7327056 -1.1396756
17.7631474 -6.6513600 -1.1836548
18.0234413 -5.4717450 -1.2234745
18.2898445 -4.2036963 -1.2638628
18.3132610 -2.8012450 -1.2673218
18.2453079 -1.4197505 -1.2569296
18.2745132 0.0322539 -1.2612851
18.3880329 1.4961755 -1.2785006
1.1910588 0.1864925 1.3200184
0.8614461 0.2011969 1.3698230
0.9049822 0.2782367 1.3632513
0.8858784 0.3352849 1.3661637
0.7974713 0.3561856 1.3795651
0.7688786 0.3883547 1.3839430
0.6950442 0.3697403 1.3951199
0.8102718 0.3879476 1.3776636
0.8978488 0.3728334 1.3643789
0.9176261 0.3197964 1.3613532
1.0071423 0.2806909 1.3478091
1.1447335 0.2355905 1.3270147
1.3424916 0.1739325 1.2971387
18.3834629 1.0068308 -1.2777767
18.3925610 -0.4545617 -1.2791283
18.2022991 -1.9023299 -1.2504711
18.2101116 -3.2809699 -1.2517762
18.2823448 -4.7147942 -1.2627134
17.9222889 -5.9635701 -1.2080410
17.5844231 -7.1206875 -1.1562929
17.4259148 -8.1550608 -1.1312439
17.2550621 -9.1011171 -1.1038802
17.1160240 -9.8552113 -1.0811961
17.2511864 -9.2161531 -1.1030796
17.3067455 -8.3238258 -1.1129546
17.6122704 -7.3500004 -1.1603215
17.8856087 -6.2686296 -1.2023735
17.5259800 -4.9178476 -1.1483762
18.3366585 -3.8074996 -1.2709281
18.2692871 -2.3997521 -1.2606397
18.4556885 -1.0434608 -1.2886922
18.4550571 0.4235146 -1.2885706
1.5554293 0.1597838 1.2649660
1.0652989 0.1899974 1.3390201
0.9528735 0.2439417 1.3560076
0.9224893 0.3051473 1.3606122
0.9016705 0.3632741 1.3637928
0.8010852 0.3783484 1.3790437
0.7117453 0.3642398 1.3925745
0.8406987 0.3808449 1.3730428
0.8956708 0.3444239 1.3646876
0.8445359 0.2645549 1.3723863
0.8964505 0.2143842 1.3645333
1.1534895 0.1868726 1.3256950
18.3923397 1.5945985 -1.2791593
18.3605518 0.1296242 -1.2742863
18.3140106 -1.3275775 -1.2673032
18.4619579 -2.7240291 -1.2897818
18.2510853 -4.0931692 -1.2580051
18.1937466 -5.4184046 -1.2492309
17.8554440 -6.5783353 -1.1976593
17.6203442 -7.6842275 -1.1612344
17.3790112 -9.0492001 -1.1227932
17.4056683 -8.2582092 -1.1280417
17.6044216 -7.2375178 -1.1592276
17.9763412 -6.1937528 -1.2161279
17.8624592 -4.8088102 -1.1992459
18.2781124 -3.5938733 -1.2620714
18.2686138 -2.2031317 -1.2605188
18.4696198 -0.7501670 -1.2907820
18.4832268 0.7180467 -1.2928371
1.3196861 0.1567870 1.3005862
1.0864708 0.2116327 1.3358196
0.9502921 0.2540332 1.3563986
0.8841779 0.3028990 1.3664048
0.8425217 0.3446399 1.3727319
0.7414311 0.3598256 1.3880640
0.8011271 0.3476898 1.3790026
0.9241470 0.3386246 1.3603759
1.0026518 0.2966809 1.3484904
0.9720498 0.2162003 1.3531091
1.3151739 0.1916805 1.3012646
18.4148388 1.3022189 -1.2825370
18.3355999 -0.1618118 -1.2705162
18.3895588 -1.6270633 -1.2787418
18.3198128 -3.0011184 -1.2683294
18.1611633 -4.3771038 -1.2444148
18.0246544 -5.6812620 -1.2236063
17.5662174 -6.7905779 -1.1537719
17.4792805 -8.0674925 -1.1394398
17.5522041 -6.9996948 -1.1515069
17.9647293 -5.8722248 -1.2144890
18.2945518 -4.6147723 -1.2645640
18.2877140 -3.1950715 -1.2634954
18.3102398 -1.8156538 -1.2667727
18.3452682 -0.3562086 -1.2719798
18.3656693 1.1034206 -1.2750943
1.3905430 0.1876495 1.2898771
1.0346870 0.2186594 1.3436440
1.0294529 0.2927918 1.3444384
0.8693300 0.3081366 1.3686527
0.8616981 0.3631829 1.3698442
0.9677692 0.3258202 1.3537724
1.0233405 0.2677631 1.3453594
0.9792358 0.1800029 1.3520249
1.3949249 0.1507638 1.2892184
18.2797623 0.5163448 -1.2620862
18.1647930 -0.9305546 -1.2447317
18.2293110 -3.3841808 -1.2546847
18.0305672 -4.7518225 -1.2246587
17.5983047 -5.9594464 -1.1590497
17.5512371 -4.8248343 -1.1522055
18.1381245 -3.6662047 -1.2409227
18.1098766 -2.2813349 -1.2365417
18.1200085 -0.8320897 -1.2379599
18.1410522 0.6085728 -1.2411299
1.3818507 0.1567572 1.2911934
1.1482539 0.2173633 1.3264837
1.0324324 0.2818567 1.3439866
0.9520855 0.1906938 1.3561268
1.2453015 0.1546407 1.3118255
18.1831112 0.8028305 -1.2474937
18.2634087 -0.6449499 -1.2596197
18.1202393 -2.0879600 -1.2380896
18.0416183 -3.4482553 -1.2263284
18.1308041 -1.9919610 -1.2396770
18.3405724 -0.5504604 -1.2712758
18.2280502 0.9015412 -1.2542884
1.1785630 0.7193676 1.3097181
0.7325512 0.3755897 1.3815718
0.7735397 0.3761019 1.3749141
0.8167909 0.3706870 1.3678869
0.8716502 0.3680351 1.3589864
0.9038954 0.3537147 1.3537489
0.9028081 0.3205590 1.3539075
0.9593610 0.3066362 1.3447448
0.9446710 0.2691329 1.3471165
1.0602874 0.2659102 1.3284035
1.0680181 0.2320009 1.3271536
1.1971346 0.2138606 1.3062618
1.2651401 0.1778412 1.2952620
1.5651531 0.1610426 1.2467179
18.1081810 1.1861159 -1.4303031
17.9293842 0.5072614 -1.4013295
17.9356956 -0.1585368 -1.4023421
17.9179153 -0.8241324 -1.3994887
18.0481148 -1.5030078 -1.4206121
17.8836498 -2.1602027 -1.3940725
17.8421764 -2.8305624 -1.3874457
17.8487549 -3.5152318 -1.3885868
17.9976883 -4.2440524 -1.4127359
17.7140121 -4.7768688 -1.3668199
17.6749649 -5.3750887 -1.3604307
17.5342636 -5.9480090 -1.3375027
17.3290958 -6.5002007 -1.3040304
17.3034611 -7.0193605 -1.2995448
17.1268082 -7.4824619 -1.2705059
16.9267979 -7.9359879 -1.2375519
17.0574284 -8.4431210 -1.2580712
16.9111786 -8.8221779 -1.2336950
16.7674904 -9.2048512 -1.2096033
16.6971302 -9.5150127 -1.1974843
16.6105671 -9.8190145 -1.1826563
16.5816231 -10.0407457 -1.1773622
16.4648151 -10.3315392 -1.1574845
16.4869709 -10.1033134 -1.1617522
16.5592823 -9.9075804 -1.1740704
16.6045780 -9.5792828 -1.1822627
16.7086163 -9.2881851 -1.1998501
16.7776566 -8.8660307 -1.2119093
16.8586464 -8.4563341 -1.2257607
16.8965397 -8.0313807 -1.2325189
16.9860840 -7.5285077 -1.2476337
17.0954800 -7.0408020 -1.2658141
17.1566734 -6.5395226 -1.2760723
17.2814350 -5.9646249 -1.2965524
17.4346409 -5.4031806 -1.3215184
17.4986534 -4.8184872 -1.3319600
17.6516113 -4.2613883 -1.3567295
17.6302185 -3.6668577 -1.3532364
17.6416550 -2.9909103 -1.3550179
17.6769047 -2.3257115 -1.3606393
17.6509590 -1.6586242 -1.3563619
17.6375504 -0.9988090 -1.3541331
17.4769096 -0.3398928 -1.3281054
17.6870651 0.3127026 -1.3621113
17.6269341 0.9669501 -1.3524120
17.6783504 1.6296763 -1.3607914
1.4136816 0.1834532 1.2712253
1.2722732 0.2133841 1.2941034
1.0582769 0.2181569 1.3287309
0.8109822 0.1942678 1.3687510
0.9355010 0.2558244 1.3485996
0.9742822 0.3000537 1.3423276
0.8827221 0.3029231 1.3571537
0.8959641 0.3396974 1.3550255
0.8296946 0.3399969 1.3657655
0.8318978 0.3669525 1.3654321
0.8332635 0.3942683 1.3652418
0.7806520 0.3898511 1.3737791
0.8074000 0.4193882 1.3694805
0.7826653 0.3856842 1.3734457
0.7904992 0.3689158 1.3721514
0.8451213 0.3674439 1.3632878
0.8658120 0.3494461 1.3599181
0.8398567 0.3133405 1.3641014
0.8842794 0.2982250 1.3568999
0.8931079 0.2698768 1.3554635
0.9725769 0.2604276 1.3425989
1.0042112 0.2349309 1.3374791
1.1210177 0.2187215 1.3185782
1.2256676 0.1922247 1.3016473
1.4644881 0.1742724 1.2630054
17.4484062 1.4220109 -1.3235617
17.2787075 0.7641253 -1.2960501
17.2577553 0.1220342 -1.2926381
17.4354610 -0.5241358 -1.3214042
17.4047890 -1.1709455 -1.3164811
17.2158089 -1.8021414 -1.2859643
17.2245007 -2.4523139 -1.2874506
17.3426704 -3.1298058 -1.3066540
17.1694756 -3.7614477 -1.2786849
17.3672428 -4.3881903 -1.3107085
17.1630478 -4.9225016 -1.2776277
17.0603809 -5.4861894 -1.2609050
16.9511890 -6.0526052 -1.2430296
16.8695240 -6.6358385 -1.2294824
16.7712898 -7.1162682 -1.2131910
16.5809345 -7.5603590 -1.1818697
16.5123234 -8.0645618 -1.1700892
16.4511089 -8.4714861 -1.1595142
16.2936230 -9.1709433 -1.1325500
16.2340546 -9.4806290 -1.1221342
16.3715744 -8.7628222 -1.1460648
16.4838524 -8.3780441 -1.1649892
16.4982796 -7.9496150 -1.1679685
16.7623711 -7.0078168 -1.2118375
16.8230667 -6.5147533 -1.2220311
16.9590187 -5.9541831 -1.2443388
17.0650177 -5.3879890 -1.2616796
17.1882992 -4.8312392 -1.2817242
17.3417988 -4.2840495 -1.3065908
17.2128315 -3.6753891 -1.2856951
17.3464718 -3.0355906 -1.3072581
17.1880646 -2.3541937 -1.2815421
17.3598824 -1.7241981 -1.3092687
17.3859901 -1.0770916 -1.3134313
17.1667347 -0.4249476 -1.2779155
17.3925190 0.2152354 -1.3144464
17.4099998 0.8624661 -1.3173013
17.4285297 1.5134755 -1.3203547
1.4635669 0.1820396 1.2631534
1.2977107 0.2105809 1.2899876
1.1319668 0.2270961 1.3168056
0.9657696 0.2367693 1.3437002
0.9103882 0.2541538 1.3526642
0.9491572 0.2978362 1.3463948
0.9394309 0.3279628 1.3479788
0.8365621 0.3222602 1.3646402
0.8735468 0.3633894 1.3586750
0.7735841 0.3461425 1.3748701
0.8089158 0.3880116 1.3691863
0.7455229 0.3772609 1.3794667
0.8260828 0.3802001 1.3663900
0.8810862 0.3775373 1.3574648
0.9250073 0.3676449 1.3503367
0.8878426 0.3258901 1.3563341
1.0381707 0.3440040 1.3319942
1.0128404 0.3002046 1.3360856
1.0216630 0.2677728 1.3346547
0.8249773 0.1883910 1.3664863
1.1342543 0.2150661 1.3164366
1.2022539 0.1820252 1.3054372
1.4898773 0.1692854 1.2588977
17.1972980 1.3097750 -1.2829177
17.3809948 0.6763118 -1.3125973
17.3567982 0.0306833 -1.3086638
17.3585739 -0.6139818 -1.3089662
17.2632046 -1.2534212 -1.2935774
17.3533592 -1.9096322 -1.3082349
17.3457985 -2.5635109 -1.3070922
17.3141136 -3.2195585 -1.3020427
17.0895844 -3.8390381 -1.2657607
17.3681908 -4.4865518 -1.3108602
16.8293037 -4.9235239 -1.2236037
17.0551968 -5.5844984 -1.2600393
16.8847675 -6.1300426 -1.2322357
16.7890034 -6.7071953 -1.2163844
16.6887531 -7.1859245 -1.1997442
16.5190372 -7.6382146 -1.1717350
16.7369041 -6.1770167 -1.2082601
17.0143166 -5.6711950 -1.2533944
17.0992947 -5.1011114 -1.2672839
17.3566589 -4.5819001 -1.3089912
17.3099709 -3.9850957 -1.3014324
17.3335705 -3.3183763 -1.3052013
17.3566895 -2.6592546 -1.3088665
17.3309956 -2.0002518 -1.3046267
17.2933693 -1.3478452 -1.2984676
17.3798046 -0.7070375 -1.3124063
17.3813801 -0.0614537 -1.3126423
17.3719292 0.5837077 -1.3111258
15.9614401 1.1305435 -1.0829203
1.5275155 0.1653613 1.2528077
1.1909738 0.1738616 1.3072635
1.1838797 0.2179778 1.3084061
1.0547599 0.2349854 1.3292989
0.9632657 0.2470152 1.3441055
0.9314118 0.2707041 1.3492630
0.9929790 0.3231954 1.3393059
0.8546734 0.3085817 1.3616989
0.8760803 0.1854472 1.3582168
1.1496060 0.1990845 1.3139542
1.2415971 0.1678220 1.2990727
1.5782384 0.1539350 1.2446014
15.9722548 0.9611673 -1.0846562
17.2290783 0.3960154 -1.2880030
17.2688217 -0.2442372 -1.2944307
17.1991291 -0.8825024 -1.2831802
17.1802139 -1.5225170 -1.2801745
17.1135788 -2.1593277 -1.2694654
17.2673683 -2.8333321 -1.2944345
17.2861938 -3.4997690 -1.2975521
16.0223351 -9.7155418 -1.2020636
16.0373173 -9.4931946 -1.2051933
16.1617928 -9.2224684 -1.2270138
16.5972290 -6.7412786 -1.3043876
16.6967678 -6.2707286 -1.3215175
17.0694008 -2.1562102 -1.3846595
17.1257553 -0.2424872 -1.3940032
17.0983887 0.3934553 -1.3893831
1.5764185 0.1539321 1.2335979
1.2157483 0.1645159 1.2945418
1.0268743 0.1780350 1.3264552
0.9956322 0.2109987 1.3317304
0.9407120 0.2308968 1.3410099
0.8737134 0.2442047 1.3523333
0.8539368 0.2682789 1.3556792
0.8451838 0.2954200 1.3571664
0.7434891 0.2867611 1.3743650
0.8497391 0.3539292 1.3564285
0.7300395 0.3506306 1.3767016
0.8658403 0.4387210 1.3537990
0.7355393 0.3678028 1.3757933
0.7653258 0.3625902 1.3707355
0.7405825 0.3270880 1.3748881
0.8173078 0.3353401 1.3619043
0.8718508 0.3309630 1.3526714
0.8816977 0.3029394 1.3509939
0.8553131 0.2637302 1.3554457
0.9106375 0.2493201 1.3460926
0.8220318 0.1971454 1.3610682
1.0691249 0.2206490 1.3193102
1.0763851 0.1807376 1.3180887
1.3509670 0.1755148 1.2716913
1.4422655 0.1331060 1.2562696
16.7923164 0.2972189 -1.3376584
16.7230663 -1.5732163 -1.3260572
16.6305332 -2.1905408 -1.3105059
16.5360851 -3.4432859 -1.2947221
16.5529251 -4.0008316 -1.2976146
16.3053780 -5.6345887 -1.2555826
16.0521679 -7.1236272 -1.2117746
15.4395351 -9.7018003 -1.1028166
15.6275940 -9.1389656 -1.1363568
16.4806538 -3.7065656 -1.2853804
16.4848461 -2.4390621 -1.2859254
1.3657597 0.1553594 1.2691946
1.2008674 0.1820236 1.2970538
1.1571586 0.2196626 1.3044342
1.0523132 0.2405858 1.3221492
0.9250901 0.2427476 1.3436497
0.8698158 0.2581201 1.3529932
0.8262536 0.2741153 1.3603611
0.7825913 0.2876094 1.3677502
0.9009970 0.3585476 1.3477560
0.7914709 0.3647373 1.3663073
0.7374373 0.3638704 1.3754656
0.8502793 0.4422450 1.3564453
0.7615223 0.3707401 1.3713912
0.7708707 0.3502941 1.3697815
0.8478933 0.3584549 1.3567446
0.7534827 0.2952207 1.3726790
0.8552661 0.3040493 1.3554645
0.7820618 0.2502679 1.3678274
0.8724383 0.2488497 1.3525491
0.9514610 0.2388981 1.3391929
0.8981845 0.1953359 1.3481992
1.0138109 0.1813197 1.3286622
1.2270817 0.1726886 1.2926255
1.4285581 0.1471551 1.2585841
15.3955593 1.0095761 -1.1016719
16.5420876 0.4685403 -1.2953789
16.4616947 -0.1456721 -1.2817852
16.5684166 -0.7629239 -1.2998445
16.4100685 -2.6063540 -1.2733145
16.3652325 -3.2267909 -1.2658250
16.1163082 -5.0945687 -1.2237542
16.1131897 -6.2475820 -1.2227931
15.9002743 -6.6557517 -1.1864755
15.5461979 -8.3321409 -1.1242599
15.8870888 -6.8493848 -1.1840782
16.0925236 -5.9464960 -1.2194557
16.2406425 -4.8507442 -1.2448115
16.3831120 -4.3300037 -1.2689238
16.4492550 -3.7913666 -1.2800815
16.5228996 -0.6729370 -1.2921474
16.5763702 0.5576056 -1.3011768
15.3655615 1.0895702 -1.0966103
1.4645194 0.1587220 1.2525059
1.2017912 0.1756415 1.2968986
1.0370963 0.1911722 1.3247261
0.9091918 0.2027911 1.3463384
0.9382727 0.2408895 1.3414218
0.8119440 0.2362634 1.3627737
0.8159346 0.2658914 1.3621038
0.7608662 0.2750488 1.3714194
0.8190339 0.3309787 1.3616090
0.7112628 0.3323643 1.3798611
0.8851104 0.3306306 1.3504280
0.7430212 0.2508893 1.3744287
0.8448630 0.2556038 1.3572111
0.8166529 0.2189341 1.3619769
0.9310470 0.2180692 1.3426440
0.9504027 0.1856475 1.3393763
1.1268803 0.1769344 1.3095566
1.2670779 0.1509527 1.2858703
16.2128601 1.3228143 -1.2398126
16.5820103 0.7341437 -1.3021400
16.5974026 0.1174972 -1.3047173
16.6397457 -0.5007804 -1.3118837
16.6104736 -1.1187716 -1.3069811
16.6078854 -1.7404813 -1.3066156
16.5825977 -2.3636250 -1.3024316
16.5477390 -3.6294608 -1.2967103
16.5225925 -4.1796827 -1.2924960
16.5269527 -4.7457042 -1.2932193
16.2229080 -5.7996464 -1.2415743
16.6385822 -3.5569029 -1.3120546
16.6467934 -2.9165039 -1.3133612
16.7044315 -2.2905667 -1.3230076
16.6411629 -1.6546921 -1.3122272
16.7020779 -1.0358931 -1.3224528
16.6581478 0.2063801 -1.3149836
16.0830879 1.3982233 -1.2178924
1.3151805 0.1637697 1.2777402
1.1989208 0.1947736 1.2973808
0.9615123 0.1931229 1.3374981
0.7605838 0.3707844 1.3660756
0.7923785 0.3605469 1.3604462
0.8127944 0.3440671 1.3568267
0.8214177 0.3222542 1.3552902
0.8077927 0.2875378 1.3576771
0.7928480 0.2540378 1.3603029
0.8950703 0.2556213 1.3422887
0.9264317 0.2328984 1.3367635
0.8730462 0.1900990 1.3461730
1.0125906 0.1813189 1.3215921
1.1890498 0.1675357 1.2905097
1.4757950 0.1522009 1.2399993
15.3402090 1.0071323 -1.2025125
16.5959702 0.4706194 -1.4236937
16.5484829 -0.7629030 -1.4153464
16.4975681 -1.3770641 -1.4064412
16.4389381 -2.6140599 -1.3963122
16.4300632 -3.2434795 -1.3948565
16.4335995 -3.8844869 -1.3955650
16.4002037 -4.4332652 -1.3897154
16.2075195 -4.9408817 -1.3557429
16.0650826 -6.0412321 -1.3303342
15.9374971 -6.4817381 -1.3075783
15.5584869 -8.5645962 -1.2379096
15.2316236 -9.5851717 -1.1774073
15.5262384 -8.2270031 -1.2328429
15.7733135 -7.0091491 -1.2781689
15.9945221 -5.5341716 -1.3180850
16.1620121 -3.9111171 -1.3477209
16.2252235 -1.5281868 -1.3584847
16.0376568 0.8818007 -1.3253658
1.3493418 0.1755120 1.2622716
1.0993632 0.1848169 1.3063058
0.9472898 0.1957406 1.3330932
0.9407580 0.2258944 1.3342401
0.8976625 0.2460708 1.3418318
0.7836607 0.2419384 1.3619204
0.7524656 0.2588643 1.3674222
0.8247072 0.3134693 1.3547053
0.8277158 0.3400532 1.3541905
0.7622338 0.3370960 1.3657454
0.7978215 0.3784939 1.3595053
0.7897980 0.3954728 1.3609464
0.8469190 0.4468431 1.3509265
0.7254655 0.3584494 1.3722659
0.7215620 0.3376288 1.3729287
0.8204906 0.3576578 1.3554797
0.8408926 0.3402537 1.3518656
0.8494049 0.3176998 1.3503517
0.7771376 0.2627405 1.3630739
0.8674196 0.2627550 1.3471617
0.8394548 0.2253241 1.3520881
0.8819799 0.2068284 1.3445972
1.0579773 0.2069097 1.3135924
1.1255244 0.1769326 1.3016986
1.4488217 0.1728094 1.2447476
16.0335827 0.7106985 -1.3246341
16.0361633 0.1136575 -1.3250630
16.0172005 -0.4826116 -1.3217340
15.9890242 -1.0781845 -1.3168180
16.0250149 -1.6813859 -1.3232381
15.9536171 -4.0406947 -1.3110158
15.6695490 -5.6089554 -1.2607667
15.4188728 -6.0805964 -1.2163363
15.1254892 -8.2217798 -1.1619191
15.0601263 -8.5001202 -1.1497707
15.0004711 -8.7847528 -1.1385427
15.1026735 -8.1056767 -1.1581013
15.3691740 -6.4418559 -1.2073238
15.4271431 -5.9892979 -1.2178471
15.3804131 -4.8680329 -1.2099850
15.8481588 -3.3920336 -1.2923687
15.7660732 -2.7655158 -1.2778087
15.9068251 0.7898208 -1.3023098
1.3013880 0.1622447 1.2707213
1.1367429 0.1848932 1.2997210
0.9482874 0.1906965 1.3329182
0.9395784 0.2309004 1.3344475
0.8726594 0.2442115 1.3462374
0.8764066 0.2756827 1.3455794
0.7743774 0.2710143 1.3635629
0.8000772 0.3089847 1.3590471
0.7576674 0.3159925 1.3665335
0.6996993 0.3550223 1.3768165
0.7457009 0.3441039 1.3686723
0.7968351 0.3175078 1.3596239
0.8510368 0.3131637 1.3500619
0.8252539 0.2741286 1.3545951
0.7743115 0.2300647 1.3635669
0.8763361 0.2302369 1.3455898
0.9550400 0.2186122 1.3317248
0.9864796 0.1874881 1.3261907
1.1385887 0.1727896 1.2993979
1.3641167 0.1553565 1.2596722
15.2063065 1.1608183 -1.1789408
15.8895130 0.6197038 -1.2992475
15.8850794 -1.1560289 -1.2985156
15.8082142 -1.7436417 -1.2850559
15.7468042 -2.3326416 -1.2743375
15.7608614 -2.9376435 -1.2769201
15.7298822 -4.0731254 -1.2715988
15.0717144 -4.9472117 -1.1555619
15.4781942 -5.6334543 -1.2270174
15.3757467 -6.1582303 -1.2086811
15.3242598 -6.6154304 -1.1992548
15.5181894 -5.7416077 -1.2340255
15.7490063 -4.7097559 -1.2749617
15.8276663 -4.1883450 -1.2888322
15.8176489 -3.6502247 -1.2870264
15.8300972 -3.0377049 -1.2891328
15.8926764 -2.4406517 -1.3000536
15.8053045 -1.2347171 -1.2844715
15.9867592 -0.6518674 -1.3163810
15.9257393 -0.0564370 -1.3056092
15.9293776 0.5364720 -1.3062649
15.4207077 1.0947703 -1.2167029
1.4505252 0.1573916 1.2444501
1.2125213 0.1774210 1.2863733
1.0479517 0.1934054 1.3153608
0.8840674 0.1974266 1.3442305
0.9252160 0.2378287 1.3369774
0.8464382 0.2466062 1.3508579
0.8383719 0.2735466 1.3522826
0.9105834 0.3295906 1.3395686
0.8740157 0.1854494 1.3460029
1.0620164 0.1843485 1.3128848
1.2386733 0.1678175 1.2817681
1.4153335 0.1383662 1.2506524
15.5048370 0.9351959 -1.2315066
15.9709320 0.3679432 -1.3135779
15.9488850 -0.2260891 -1.3096895
15.9668732 -0.8211665 -1.3128910
15.9877815 -1.4201269 -1.3166416
15.8891459 -2.0095048 -1.2993565
15.9030457 -2.6155901 -1.3019111
15.8943729 -3.2256019 -1.3004856
14.8948488 -9.0585232 -1.2266774
15.0068798 -8.5882015 -1.2485082
15.0306044 -8.2860575 -1.2535198
15.4838705 -6.3057694 -1.3393643
15.5378151 -5.8507519 -1.3495059
15.6182547 -5.3181734 -1.3644354
15.8453217 -4.2887578 -1.4061513
15.8505535 -3.7514174 -1.4070539
15.8623934 -3.2231534 -1.4091351
15.7107344 -1.9893951 -1.3810768
15.8609695 -0.8167186 -1.4084470
15.9166145 -0.2259074 -1.4186137
1.5847790 0.1551221 1.2093872
1.2492995 0.1694666 1.2708979
1.0849067 0.1885567 1.3010365
1.0292661 0.2186655 1.3112326
0.9622824 0.2367804 1.3235124
0.8478732 0.2375801 1.3444933
0.8518311 0.2683010 1.3437682
0.7617844 0.2669590 1.3602883
0.7646132 0.2956845 1.3597798
0.7453398 0.3112738 1.3633280
0.7482689 0.3361501 1.3628106
0.8636553 0.4388358 1.3417181
0.7258979 0.3835419 1.3669888
0.7336854 0.3678966 1.3655304
0.7188807 0.3415206 1.3682187
0.8063195 0.3570835 1.3521626
0.8038864 0.3307109 1.3525890
0.8696902 0.3310092 1.3405076
0.7980631 0.2749123 1.3536335
0.8532047 0.2637506 1.3435159
0.8490876 0.2330538 1.3442707
0.9515341 0.2287718 1.3254844
1.0303797 0.2131772 1.3110294
1.0131351 0.1705330 1.3141999
1.2379687 0.1612245 1.2729771
1.4754332 0.1364955 1.2294401
15.6823339 0.2782386 -1.3756559
15.6421299 -1.4750787 -1.3684051
15.5784254 -2.0569391 -1.3568299
15.5560961 -3.7692678 -1.3530612
14.4043360 -4.9905276 -1.1417792
15.2083836 -5.8193088 -1.2890499
15.1892757 -6.2802477 -1.2852812
14.7397165 -8.2282858 -1.2000227
14.5743570 -9.1855307 -1.1670992
14.6721497 -8.6052399 -1.1867177
14.6753607 -8.2951097 -1.1880174
15.0761080 -4.9551282 -1.2650373
15.4720211 -4.0114670 -1.3376710
15.4717541 -2.2947392 -1.3373194
15.5807552 -1.7206703 -1.3571935
15.5381107 0.6067401 -1.3492274
1.3501973 0.1539608 1.2524004
1.1493132 0.1746336 1.2892300
1.0577030 0.2012763 1.3060218
0.8699422 0.1993848 1.3404502
0.9347090 0.2458869 1.3285679
0.8087135 0.2405970 1.3516754
0.8592461 0.2857940 1.3424103
0.8153077 0.3004152 1.3504767
0.7615134 0.3038425 1.3603532
0.8891768 0.3825093 1.3369613
0.7223769 0.3338041 1.3675672
0.7576764 0.3748935 1.3611262
0.6950794 0.3625396 1.3726279
0.8613696 0.4434579 1.3421459
0.7706833 0.3762369 1.3587352
0.7128828 0.3248240 1.3693029
0.7777404 0.3296771 1.3573903
0.8432985 0.3312830 1.3453526
0.8763403 0.3123503 1.3392801
0.7684158 0.2465306 1.3590677
0.8584628 0.2454823 1.3425510
0.9371950 0.2359042 1.3281130
1.0281243 0.2241482 1.3114411
1.1202189 0.2008417 1.2945591
1.1753898 0.1658161 1.2844505
1.3272625 0.1370510 1.2566087
15.3945522 1.0119389 -1.3229430
15.4575367 0.4388723 -1.3344419
15.5244083 -0.1377075 -1.3466930
15.4967442 -0.7152911 -1.3416507
15.3870754 -1.2859474 -1.3216088
15.3669682 -1.8628250 -1.3180199
15.3865585 -2.4497550 -1.3217306
15.3722467 -3.0384595 -1.3192270
15.3812618 -3.8136840 -1.3210065
15.2792645 -4.3106065 -1.3023396
15.2320223 -4.8273449 -1.2936563
14.3319197 -5.0510278 -1.1284752
15.0977573 -5.8692842 -1.2687180
14.9862289 -6.2898955 -1.2479830
14.5834341 -7.8383102 -1.1719856
14.9542456 -6.4645348 -1.2419729
15.0362320 -6.0303745 -1.2573347
15.0599098 -5.5794649 -1.2618988
15.2965488 -4.0529757 -1.3054960
15.3784695 -3.5533652 -1.3204587
15.3273392 -2.9449112 -1.3109744
15.3382320 -2.3584292 -1.3128507
15.3763561 -1.7809790 -1.3197262
15.3199883 -1.1982726 -1.3092947
15.3155890 1.0886408 -1.3084733
1.4364907 0.1560608 1.2365773
1.2110016 0.1774183 1.2779183
1.0466378 0.1934043 1.3080523
0.8829584 0.1974279 1.3380637
0.9359649 0.2408986 1.3283380
0.7863247 0.2293880 1.3557817
0.9074996 0.2964889 1.3335595
0.8168489 0.2960551 1.3501923
0.7827587 0.3171588 1.3564601
0.7742862 0.3379799 1.3580315
0.7875899 0.3690378 1.3556173
0.8944472 0.3349929 1.3359650
0.9160439 0.3101098 1.3319944
0.7839130 0.2377672 1.3562242
0.8384003 0.2253292 1.3462312
0.9407297 0.2208849 1.3274667
1.0687155 0.2092716 1.3040010
1.1119719 0.1750193 1.2960767
1.2639675 0.1509468 1.2682120
15.3892612 1.2586422 -1.3220055
15.3874750 0.6828941 -1.3216116
15.3157549 0.1086842 -1.3084321
15.3830738 -0.4640717 -1.3207893
15.3927908 -1.0392512 -1.3226235
15.3572016 -1.6133007 -1.3161833
15.3495321 -2.1931880 -1.3148885
15.3447666 -2.7792363 -1.3141360
15.3302164 -3.3707423 -1.3115814
15.2898464 -3.8775094 -1.3042502
15.3395557 -4.4158854 -1.3133988
15.1717520 -4.8972502 -1.2825921
15.0935698 -5.4099360 -1.2681351
15.3113222 -3.2812593 -1.3081012
15.3346691 -2.6931977 -1.3122666
15.3362741 -2.1080689 -1.3124402
15.3408470 -1.5290806 -1.3131704
15.3734064 -0.9557799 -1.3190589
15.4098186 -0.3828040 -1.3256893
15.3395557 0.1904999 -1.3127983
15.4451056 0.7678339 -1.3321867
15.3580818 1.3384124 -1.3163004
1.3119520 0.1637637 1.2594112
1.1110544 0.1809397 1.2962437
0.9832553 0.1979765 1.3196731
0.8492671 0.4378753 1.3382159
0.8028378 0.3925071 1.3470305
0.8351044 0.3810612 1.3408521
0.7880375 0.3345148 1.3498009
0.8192964 0.3223031 1.3438282
0.8867691 0.3165015 1.3309551
0.7440064 0.2390225 1.3581660
0.8691525 0.2488713 1.3343086
0.9359713 0.2359075 1.3215743
0.8348207 0.1822429 1.3408622
1.0462545 0.1878237 1.3005670
1.1860117 0.1675296 1.2739381
1.4720247 0.1521931 1.2194340
15.2520390 1.0038463 -1.4069228
15.2955828 -0.1358498 -1.4151537
15.3171940 -0.7079015 -1.4193058
15.1102076 -1.2644179 -1.3799314
15.1885452 -1.8435543 -1.3949728
15.1361694 -2.4129975 -1.3851233
15.0992575 -2.9883842 -1.3782284
15.1486702 -3.5900159 -1.3877747
15.0420341 -4.0767498 -1.3675253
14.8414946 -5.0605741 -1.3292832
14.8384991 -5.5951653 -1.3285723
14.7458429 -6.0136437 -1.3106976
14.6416969 -6.4312787 -1.2905262
14.2767944 -7.8823996 -1.2187974
14.2258453 -8.4586363 -1.2077625
14.1659155 -8.7324991 -1.1955490
14.2029047 -8.5477657 -1.2031376
14.1848392 -8.2309093 -1.2004404
14.2465086 -7.9650302 -1.2128320
14.2669659 -7.5819468 -1.2174661
14.3157520 -4.9666209 -1.2290442
14.9509220 -3.6274061 -1.3500936
1.3458941 0.1755048 1.2434667
1.1691875 0.1970543 1.2771372
1.0651076 0.2206496 1.2969664
0.8428227 0.2029018 1.3393331
0.9309019 0.2558500 1.3225379
0.8873070 0.2746624 1.3308473
0.7621521 0.2629007 1.3547089
0.8340716 0.3178930 1.3410074
0.8255739 0.3401109 1.3426398
0.7265053 0.3221969 1.3615396
0.7512726 0.3574272 1.3568436
0.7547126 0.3789973 1.3562136
0.8579054 0.4481321 1.3365796
0.7566636 0.3749415 1.3558348
0.7753983 0.3638509 1.3522408
0.7732608 0.3380131 1.3526248
0.8159213 0.3310596 1.3444767
0.9047849 0.3393336 1.3275257
0.7634982 0.2588207 1.3544515
0.8769531 0.2663448 1.3328210
0.8966194 0.2412964 1.3290739
0.8199452 0.1927776 1.3436950
1.0191259 0.1998208 1.3057342
1.1347742 0.1788386 1.2836999
1.4573069 0.1742588 1.2222345
14.9533501 1.2245486 -1.3500309
14.8540659 0.1055416 -1.3310053
14.8846855 -0.4496064 -1.3368547
14.8829889 -1.0061102 -1.3365881
14.8733759 -1.5644705 -1.3348508
14.8556347 -2.1253474 -1.3315923
14.8053083 -2.6850047 -1.3221364
14.7945118 -3.2572119 -1.3202116
14.7698479 -3.7505901 -1.3156035
14.7882214 -4.2628636 -1.3191621
14.7659454 -4.7727189 -1.3149121
14.6455765 -5.2565794 -1.2918797
14.4868984 -5.7287388 -1.2614357
14.4810314 -6.1774483 -1.2600462
14.0441713 -7.9504318 -1.1740980
14.0037994 -8.2259197 -1.1657417
14.1515646 -7.6176033 -1.1953154
14.5354376 -6.1093121 -1.2704792
14.5621319 -5.6689429 -1.2758181
14.8020744 -4.6974268 -1.3218057
14.8604984 -3.6894271 -1.3328712
14.7990799 -3.1756294 -1.3210645
14.7584734 -2.5953569 -1.3131890
14.8177319 -2.0394080 -1.3243487
14.9178581 -1.4888184 -1.3433135
14.9247046 -0.9290636 -1.3445280
1.3224208 0.1652820 1.2479424
1.0974901 0.1789614 1.2908051
1.0541927 0.2125361 1.2990483
0.9610263 0.2367832 1.3167989
0.8940823 0.2508623 1.3295566
0.8858782 0.2794017 1.3311198
0.7723854 0.2710448 1.3527591
0.8438870 0.3267947 1.3391384
0.7330052 0.3065546 1.3602870
0.7697230 0.3462836 1.3533074
0.7549284 0.3493490 1.3561363
0.7749973 0.3338645 1.3522899
0.7947760 0.3175580 1.3485045
0.8373082 0.3089475 1.3403867
0.8076556 0.2406047 1.3460317
0.9097299 0.2396331 1.3265753
0.9406271 0.2158682 1.3206906
1.0201409 0.1943805 1.3055420
1.1114080 0.1690915 1.2881552
1.4459896 0.1650948 1.2243931
14.9472103 1.1438942 -1.3488476
14.8680029 0.5813106 -1.3336849
14.9525700 0.0265601 -1.3497779
14.7963285 -0.5258699 -1.3200204
14.9143257 -1.0880973 -1.3425722
14.9017181 -1.6477847 -1.3402691
14.8809166 -2.2099476 -1.3364301
14.8274860 -2.7707195 -1.3263838
14.8494043 -3.3523610 -1.3306935
14.8216543 -3.8479354 -1.3254919
14.8485575 -4.3660893 -1.3306687
14.7644691 -4.8592906 -1.3146226
14.5826635 -5.8566594 -1.2796440
14.4827766 -6.2696223 -1.2603111
14.6481371 -5.4344077 -1.2923162
14.5993280 -4.8913159 -1.2831311
14.8611498 -4.4559679 -1.3330712
14.8609867 -3.9427936 -1.3330014
14.8438950 -3.4343500 -1.3296599
14.8974133 -2.8660269 -1.3397329
14.8572044 -2.2874088 -1.3319299
14.8930330 -1.7272053 -1.3386302
14.8962889 -1.1666164 -1.3391466
14.9770422 -0.0532073 -1.3544424
14.9566355 0.5049681 -1.3505714
14.9773722 1.0659550 -1.3545847
1.3614123 0.1480933 1.2405152
1.1608431 0.1702886 1.2787338
1.0332005 0.1911690 1.3030540
0.8937903 0.2001118 1.3296200
0.9347426 0.2409025 1.3218077
0.8442684 0.2466214 1.3390522
0.7894909 0.2582843 1.3494953
0.7695445 0.2792943 1.3533030
0.8717809 0.1854500 1.3338177
1.0351123 0.1801352 1.3026923
1.2355084 0.1678110 1.2645051
1.3995036 0.1371618 1.2332579
14.9752712 0.9055108 -1.3541625
14.9487438 0.3452523 -1.3490574
14.9388657 -0.2122990 -1.3471696
14.9334450 -0.7699353 -1.3461752
14.9201374 -1.3286128 -1.3437188
14.8987923 -1.8890003 -1.3397627
14.8691750 -2.4517524 -1.3342509
14.8911419 -3.0297432 -1.3385761
14.0014896 -8.5423260 -1.2662654
14.0046120 -8.3404655 -1.2673941
14.0257053 -8.0517263 -1.2722507
14.0520849 -7.7704992 -1.2780645
14.4302855 -6.3477864 -1.3549502
14.4526405 -5.9026532 -1.3596609
14.5424509 -5.4914103 -1.3776128
14.4378452 -4.9299035 -1.3570180
14.7492733 -4.0029140 -1.4185970
14.7581606 -3.5022395 -1.4202516
14.7267752 -3.0003486 -1.4139125
14.6917925 -2.4257467 -1.4068308
14.7691841 -1.8750557 -1.4219911
14.7663717 -0.7623240 -1.4212208
1.4585965 0.1431425 1.2114356
1.2216897 0.1661549 1.2582935
1.0578679 0.1843421 1.2906939
1.0145361 0.2161099 1.2992563
0.9359034 0.2309086 1.3148073
0.9046818 0.2541874 1.3209796
0.8729687 0.2757157 1.3272526
0.7597479 0.2669887 1.3496591
0.7625623 0.2957278 1.3491093
0.7206651 0.3018348 1.3574103
0.8022861 0.3614694 1.3412791
0.6968902 0.3551661 1.3621765
0.7646527 0.3845750 1.3487681
0.8168396 0.3892065 1.3384204
0.8041422 0.3571562 1.3409077
0.8244421 0.3401402 1.3368742
0.8673589 0.3310556 1.3283709
0.8887745 0.3070128 1.3241261
0.8509299 0.2637700 1.3316139
0.8941481 0.2460877 1.3230648
0.9609287 0.2316505 1.3098567
1.0156338 0.2106850 1.2990406
1.1676043 0.1970511 1.2689836
1.2589904 0.1643908 1.2509154
1.4227018 0.1319594 1.2185384
14.5801306 0.8047219 -1.3843832
14.5252962 -0.2842201 -1.3734894
14.4677000 -1.9152764 -1.3623645
14.4132309 -2.4588273 -1.3517387
14.4470644 -3.0237367 -1.3585899
14.3704166 -3.4913254 -1.3435466
14.3618984 -3.9801791 -1.3419559
14.3489666 -4.4758601 -1.3394439
14.2498512 -4.9507675 -1.3198071
14.1698771 -5.4372864 -1.3038611
14.0701008 -5.8342099 -1.2839229
14.0717678 -6.2799029 -1.2839489
13.7968712 -6.9697819 -1.2286837
13.6464844 -7.6415744 -1.1976931
13.5792713 -7.8920736 -1.1837988
13.5498161 -8.1678686 -1.1772814
13.5336113 -8.5571098 -1.1729994
13.5488062 -7.9713840 -1.1775560
13.6067238 -7.7149649 -1.1896396
13.7032452 -7.4823995 -1.2092764
13.9390669 -6.3999224 -1.2575397
13.9977808 -5.9800715 -1.2695067
14.2663364 -4.7019553 -1.3230915
14.2909813 -3.7152586 -1.3278799
14.2909393 -3.2306681 -1.3277614
14.3012028 -2.6759708 -1.3296404
14.3514996 -2.1341677 -1.3394370
14.3089809 -1.5843389 -1.3308871
1.3344346 0.1525601 1.2359946
1.1704994 0.1783195 1.2684162
1.0548931 0.2012729 1.2912774
0.8795834 0.2021337 1.3259552
0.9322218 0.2458954 1.3155326
0.7947980 0.2371038 1.3427221
0.8103670 0.2702835 1.3396409
0.7324827 0.2706561 1.3550570
0.7594683 0.3038908 1.3497254
0.7400779 0.3192907 1.3535752
0.7761964 0.3597280 1.3464497
0.7225602 0.3585871 1.3570868
0.8567081 0.4481970 1.3305867
0.8480835 0.4379371 1.3322834
0.7354500 0.3601061 1.3545313
0.8115893 0.3708832 1.3394432
0.7869553 0.3345457 1.3442973
0.8410352 0.3313336 1.3335836
0.8624327 0.3082538 1.3293403
0.8481648 0.2728673 1.3321609
0.8915644 0.2556424 1.3235747
0.9347020 0.2359103 1.3150439
1.0493544 0.2293867 1.2923653
0.9724321 0.1748056 1.3075963
1.2208188 0.1726759 1.2584640
1.5066054 0.1559747 1.2019358
14.2531261 0.9393376 -1.3197129
14.3313665 -0.1274533 -1.3351197
14.2559528 -0.6597224 -1.3202357
14.2959299 -1.1978594 -1.3282242
14.2198105 -2.2699430 -1.3134253
14.2608633 -2.8262596 -1.3217030
14.1974888 -3.5296435 -1.3093464
14.1995144 -4.0168839 -1.3098347
14.2204199 -4.5191636 -1.3140085
14.0851984 -4.9779487 -1.2872126
14.0042849 -5.4596496 -1.2710636
13.9491777 -5.8714914 -1.2599459
13.9159412 -6.2996178 -1.2530453
13.7262268 -6.6604891 -1.2150593
13.6659555 -7.3676529 -1.2020717
13.9554319 -6.0502362 -1.2610681
14.0155592 -5.6370735 -1.2732208
14.0985441 -5.2380033 -1.2897985
14.2302675 -4.7743945 -1.3159487
14.2649889 -4.2831707 -1.3228171
14.2716579 -3.7916467 -1.3240719
14.2621717 -3.3042517 -1.3220890
14.3474464 -2.7639399 -1.3388128
14.3160992 -2.2070439 -1.3324544
14.3249941 -1.6635312 -1.3340731
14.3751965 -1.1272928 -1.3438916
14.3440781 -0.0510256 -1.3376331
14.3214474 1.0206169 -1.3332415
1.4204918 0.1547247 1.2189707
1.1956573 0.1756295 1.2634404
1.0438575 0.1934005 1.2934626
1.0361922 0.2323094 1.2949682
0.9572328 0.2470373 1.3105844
0.8902355 0.2604100 1.3238370
0.8000826 0.2621177 1.3416758
0.8377470 0.3044814 1.3342263
0.7806550 0.3172112 1.3455355
0.8077115 0.3795823 1.3402205
0.7655712 0.2875344 1.3485107
0.9135969 0.3101408 1.3192136
0.8053079 0.2449260 1.3406420
0.8480157 0.2285306 1.3321943
0.9621076 0.2265097 1.3096247
0.9455495 0.1856446 1.3129108
1.1574570 0.1826571 1.2709948
1.3579725 0.1625963 1.2313360
14.4323177 1.1834413 -1.3552015
14.5141468 0.6458030 -1.3713114
14.4295912 0.1026604 -1.3545506
14.4480886 -0.4369926 -1.3582249
14.3493099 -0.9713120 -1.3387454
14.3656855 -1.5130696 -1.3420873
14.3622732 -2.0575018 -1.3415475
14.3750877 -2.6104848 -1.3442369
14.3672504 -3.1674364 -1.3428404
14.3217983 -3.6417992 -1.3339615
14.3083239 -4.1302462 -1.3313763
14.2670126 -4.6179290 -1.3232276
14.1517887 -5.0865874 -1.3003740
14.4193192 -3.0983310 -1.3531218
14.3762398 -2.5315309 -1.3444419
14.4455128 -1.9908253 -1.3579955
14.4342394 -1.4424591 -1.3556330
14.3907986 -0.8970087 -1.3469415
14.4868851 -0.3608074 -1.3658953
14.4656248 0.1801110 -1.3616807
14.5481300 1.2711211 -1.3781281
1.3449557 0.1683218 1.2339095
1.0960041 0.1789581 1.2831517
0.9926631 0.2004013 1.3035873
0.7674818 0.3763798 1.3426065
0.8104282 0.3709241 1.3337730
0.8197153 0.3490019 1.3318498
0.7713596 0.3043393 1.3417584
0.8265712 0.2958715 1.3304251
0.8002917 0.2578398 1.3358158
0.9138674 0.2624132 1.3125191
0.9333873 0.2359124 1.3085219
1.0359153 0.2267667 1.2874993
1.1036233 0.1986643 1.2736241
1.2069838 0.1709545 1.2524375
1.4192718 0.1471346 1.2089103
14.4284906 0.9521924 -1.4591398
14.3551350 0.4091831 -1.4440293
14.3968964 -0.1282103 -1.4525800
14.3092794 -0.6630926 -1.4346502
14.2270737 -1.1937194 -1.4178793
14.3690472 -1.7488003 -1.4471295
14.2723761 -2.2814863 -1.4274654
14.3008842 -2.8381476 -1.4334931
14.2011080 -3.3748016 -1.4132011
14.2555294 -3.8744328 -1.4244931
14.2226505 -4.3596106 -1.4178355
14.2085972 -4.8587289 -1.4149759
14.1087656 -5.3355656 -1.3944287
13.9550314 -5.7080150 -1.3627458
13.9153576 -6.1306400 -1.3543608
13.8300533 -6.5396123 -1.3364935
13.5368509 -7.4977388 -1.2748380
13.3974409 -7.7036934 -1.2457068
13.3500700 -7.9638743 -1.2353594
13.3678913 -8.4666872 -1.2377303
13.3397646 -8.2504730 -1.2325153
13.3928976 -8.0867605 -1.2439008
13.4211588 -7.8130479 -1.2503631
13.4227982 -7.5285678 -1.2512834
13.7407122 -6.5874286 -1.3180799
13.7826481 -6.1603165 -1.3270760
13.9027376 -5.7735276 -1.3519776
14.0009127 -5.3804598 -1.3722806
14.0096493 -4.8744588 -1.3741565
14.1883202 -4.4321561 -1.4108014
14.0883398 -3.4276323 -1.3900909
14.1151133 -2.9583964 -1.3954375
14.0469379 -1.8621343 -1.3811073
14.1043844 -1.3353503 -1.3927493
14.0766964 -0.2758170 -1.3869174
14.1627893 0.2522710 -1.4045730
1.3543221 0.1770820 1.2222215
1.0814586 0.1827657 1.2781744
0.9302711 0.1932472 1.3091738
0.8881289 0.2144032 1.3178091
0.8456353 0.2330684 1.3265189
0.8029013 0.2492422 1.3352811
0.7832165 0.2709463 1.3393188
0.7286159 0.2785141 1.3505244
0.8119270 0.3354828 1.3334422
0.7469048 0.3322432 1.3467948
0.7491565 0.3575133 1.3463540
0.7525769 0.3790996 1.3456753
0.7215196 0.3586345 1.3520379
0.7843290 0.3691663 1.3391353
0.8048258 0.3528690 1.3349105
0.8363788 0.3403657 1.3284239
0.8563415 0.3221039 1.3243202
0.8078200 0.2746337 1.3342711
0.8041728 0.2449338 1.3350208
0.8349921 0.2253417 1.3287034
0.8772960 0.2068337 1.3200328
0.9442211 0.1856424 1.3063157
1.2162942 0.1922076 1.2505217
1.3803719 0.1655053 1.2168827
13.9485579 1.1453365 -1.3607521
13.9630117 -0.4228961 -1.3636127
13.9140310 -0.9431331 -1.3536334
13.9194975 -1.4680843 -1.3548663
13.8937559 -1.9931284 -1.3497341
13.8609715 -2.5206220 -1.3431795
13.8686552 -3.0618088 -1.3449311
13.8148708 -3.5178792 -1.3340347
13.8172283 -3.9942105 -1.3346255
13.8736753 -4.4971428 -1.3462627
13.7394047 -4.9456491 -1.3186989
13.6139050 -5.3993964 -1.2928338
13.6167078 -5.8261185 -1.2932105
13.5063152 -6.2108102 -1.2702565
13.4294500 -6.6156168 -1.2540479
13.3442593 -6.9318867 -1.2361107
13.2302837 -7.2358313 -1.2121620
13.1911755 -7.4915886 -1.2036252
13.1367731 -7.7417674 -1.1918757
13.2675228 -7.1643715 -1.2199528
13.3142900 -6.8262305 -1.2300932
13.4081917 -6.5163503 -1.2497888
13.4822683 -6.1126957 -1.2653959
13.5560865 -5.7146840 -1.2808228
13.6301174 -5.3217216 -1.2961879
13.6721964 -4.8390961 -1.3049200
13.7447653 -4.3743396 -1.3198111
13.7550468 -3.8967216 -1.3218539
13.9278708 -3.4675174 -1.3571944
13.8243303 -2.9746487 -1.3358138
13.8013773 -2.4336772 -1.3309307
13.8067865 -1.9054199 -1.3318732
13.8576088 -0.8649522 -1.3420496
13.8793592 -0.3461470 -1.3464513
13.8083773 1.2081362 -1.3320179
1.3066308 0.1637502 1.2320052
1.1186299 0.1829055 1.2705519
0.9792649 0.1979727 1.2991254
0.9226940 0.2279718 1.3107170
0.8680182 0.2442351 1.3219260
0.7782310 0.2461504 1.3403419
0.7586737 0.2670032 1.3443542
0.7500440 0.2913075 1.3461297
0.7649125 0.3208522 1.3430891
0.7451800 0.3362567 1.3471522
0.7583575 0.3668917 1.3444722
0.6958841 0.3552157 1.3573070
0.7862241 0.3649395 1.3387420
0.7811703 0.3130440 1.3397474
0.8004695 0.2962158 1.3357815
0.8092227 0.2702958 1.3339832
0.7467023 0.2230767 1.3468118
0.8953710 0.2365112 1.3163180
0.9022208 0.2076278 1.3149214
0.9932726 0.1897798 1.2962557
1.1567534 0.1764688 1.2627363
1.3690420 0.1567314 1.2192085
13.8444223 1.0623466 -1.3393803
13.8121319 0.5414752 -1.3326807
13.8345346 0.0246399 -1.3372471
13.8016701 -0.4918335 -1.3305304
13.8113565 -1.0103356 -1.3325894
13.8022861 -1.5303323 -1.3308456
13.7985735 -2.0547767 -1.3302343
13.7395144 -2.5744498 -1.3182912
13.7810535 -3.1197832 -1.3269849
13.7491655 -3.5794818 -1.3205762
13.7142000 -4.0439510 -1.3135026
13.7106190 -4.5253844 -1.3128135
13.5985546 -4.9771805 -1.2897909
13.5631180 -5.4633012 -1.2823837
13.4963808 -5.8601451 -1.2684758
13.4406757 -6.2678418 -1.2567165
13.5957193 -5.0586796 -1.2891943
13.8963470 -4.6691718 -1.3509176
13.7753706 -4.1421199 -1.3260639
13.8371420 -3.6814401 -1.3386433
13.8125591 -3.2045939 -1.3334715
13.7261038 -2.6479285 -1.3155651
13.8241310 -2.1341453 -1.3355002
13.8425856 -1.0870087 -1.3390081
13.8478670 -0.5675789 -1.3400116
13.8467093 -0.0493234 -1.3397439
1.4428320 0.1573735 1.2040762
1.2060896 0.1774064 1.2526188
1.0423911 0.1933975 1.2861822
0.8913245 0.2001117 1.3171581
0.9084371 0.2347773 1.3136389
0.8184105 0.2397439 1.3321013
0.7640045 0.2506624 1.3432600
0.8941902 0.3254761 1.3165535
0.9412433 0.2007785 1.3069214
1.0201970 0.1780244 1.2907383
1.2442323 0.1694539 1.2447995
1.4687287 0.1443342 1.1987687
13.9445734 0.8454503 -1.3598812
13.9043970 0.3219923 -1.3515844
13.9066210 -0.1981588 -1.3520343
13.8901663 -0.7180668 -1.3487048
13.8672390 -1.2381774 -1.3440957
13.8984480 -1.7669357 -1.3506293
13.8376923 -2.2878919 -1.3383300
13.8541355 -2.8265078 -1.3418779
12.9320030 -7.9167733 -1.2438323
13.0870676 -7.8204131 -1.2771885
13.1854906 -7.5947027 -1.2986851
13.2049723 -7.3262005 -1.3033462
13.3641176 -6.6832790 -1.3381875
13.4436417 -6.3671174 -1.3554385
13.5357981 -5.9728551 -1.3753383
13.5601969 -5.5551620 -1.3807268
13.6297503 -5.1623383 -1.3956096
13.8054695 -4.7280240 -1.4329669
13.7805920 -4.2304149 -1.4276230
13.7978706 -3.7555790 -1.4311759
13.7520027 -3.2728429 -1.4212785
13.7860394 -2.8166800 -1.4283376
13.8175583 -2.2878344 -1.4348316
13.7740326 -1.2315941 -1.4252572
13.8455524 -0.7167689 -1.4403431
13.7986584 0.3199933 -1.4303415
1.5638928 0.1539036 1.1678650
1.2060876 0.1644928 1.2438409
1.0307565 0.1801251 1.2810651
0.9039916 0.1931117 1.3079770
0.8025914 0.1985879 1.3295063
0.8785313 0.2475590 1.3133652
0.8121076 0.2572503 1.3274702
0.7575624 0.2670174 1.3390560
0.7603617 0.2957708 1.3384643
0.7976895 0.3351250 1.3305423
0.7572287 0.3669381 1.3391719
0.8478394 0.4334914 1.3199527
0.7624097 0.3846803 1.3380883
0.7812487 0.3734292 1.3340654
0.8690134 0.3871733 1.3154024
0.8107307 0.3355117 1.3277698
0.8877428 0.3398630 1.3114016
0.8977913 0.3110534 1.3092644
0.8601788 0.2674219 1.3172584
0.9033834 0.2493523 1.3080871
0.9462886 0.2287772 1.2989827
0.9049701 0.1882634 1.3077711
1.2004319 0.2031629 1.2450283
1.1947944 0.1564454 1.2462416
1.4916487 0.1387397 1.1832101
13.6966085 0.7580550 -1.4087195
13.6901569 0.2441954 -1.4072950
13.6830940 -0.7817887 -1.4058537
13.6580324 -1.2949210 -1.4006400
13.5525618 -2.3185272 -1.3785741
13.6636763 -2.8679242 -1.4023750
13.5567255 -3.3031135 -1.3798234
13.5661564 -3.7705896 -1.3819740
13.5483484 -4.2385750 -1.3782985
13.5496550 -4.7215652 -1.3786216
13.2027607 -5.0815558 -1.3048825
13.3616276 -5.5574908 -1.3385105
13.2697763 -5.9404969 -1.3187747
13.1672974 -6.3227134 -1.2966630
13.0995340 -6.6388187 -1.2818928
12.7762489 -8.1061878 -1.2100382
12.8522253 -7.5870528 -1.2275612
12.9683275 -7.3774929 -1.2527721
13.1013126 -6.4644547 -1.2824719
13.2300615 -6.0934954 -1.3102167
13.3261585 -5.7107701 -1.3308995
13.3091545 -5.2867117 -1.3274474
13.3715849 -4.9015918 -1.3407822
13.5510540 -4.4794574 -1.3789055
13.4476690 -3.9712541 -1.3568623
13.4804907 -3.5146911 -1.3637056
13.4269733 -3.0440459 -1.3521795
13.5272303 -2.5383208 -1.3732779
13.5366793 -2.0186546 -1.3750935
13.5251522 -0.4826581 -1.3722732
1.4399067 0.1650781 1.1941903
1.1913242 0.1820024 1.2469698
1.0278575 0.1966707 1.2816745
0.8651480 0.1993861 1.3162227
0.9177239 0.2427723 1.3050437
0.8276996 0.2476427 1.3241603
0.7615879 0.2547687 1.3382013
0.7763211 0.2877197 1.3350716
0.7345268 0.2948093 1.3439552
0.7628123 0.3546394 1.3379725
0.7643847 0.3805594 1.3376628
0.7663382 0.3764288 1.3372424
0.8761219 0.4016313 1.3139002
0.7959518 0.3394168 1.3309138
0.7816222 0.3088660 1.3339487
0.8224259 0.2653691 1.3252773
0.9125340 0.2624188 1.3061403
0.9320270 0.2359139 1.3020086
1.0344068 0.2267651 1.2802725
1.1501496 0.2073371 1.2557034
1.2294337 0.1743824 1.2388803
1.4415197 0.1496527 1.1938522
13.4808016 0.8909056 -1.3629143
13.4670496 0.3844090 -1.3599250
13.4229145 -0.1197048 -1.3505378
13.4950533 -0.6262420 -1.3658981
13.4513540 -1.1302278 -1.3567111
13.5109730 -1.6467030 -1.3695118
13.4186630 -2.1480856 -1.3500800
13.3924980 -2.6617055 -1.3447161
13.3852606 -3.3373067 -1.3434258
13.3935423 -3.7999279 -1.3453250
13.4097261 -4.2741132 -1.3488612
13.4328241 -4.7616072 -1.3538008
12.9709959 -5.0722032 -1.2556281
13.1972914 -5.5721540 -1.3035634
13.1161318 -5.9561634 -1.2860799
13.0352030 -6.3453355 -1.2685223
12.9886446 -6.6702051 -1.2582338
12.9019432 -6.9785709 -1.2393148
13.0984297 -6.1180310 -1.2821887
13.1841097 -5.7335868 -1.3006794
13.2021866 -5.3261824 -1.3046985
13.2658176 -4.9434981 -1.3183041
13.3919153 -4.0328183 -1.3450346
13.4031372 -3.5712209 -1.3472972
13.4111652 -3.1160004 -1.3488491
13.3819551 -2.5852587 -1.3424482
13.4657354 -2.0817869 -1.3600519
13.3735447 -1.5573804 -1.3403020
13.4325972 -1.0563035 -1.3527110
13.4614496 -0.5525179 -1.3587527
1.4407330 0.1573674 1.1940172
1.2043347 0.1774011 1.2442087
1.0168304 0.1889266 1.2840189
0.9616277 0.2162092 1.2957301
0.9308029 0.2409108 1.3022670
0.8641946 0.2535319 1.3164084
0.7628874 0.2506728 1.3379257
0.8008085 0.2919314 1.3298688
0.8010977 0.3265158 1.3298143
0.7924094 0.3479743 1.3316716
0.7276851 0.3430554 1.3454378
0.7862946 0.2962107 1.3329532
0.7486747 0.2549111 1.3409444
0.8029985 0.2449410 1.3294070
0.7628975 0.2061888 1.3379329
0.8760181 0.2068336 1.3139118
0.9428468 0.1856396 1.2997295
1.1179248 0.1769152 1.2625573
1.2570097 0.1509283 1.2330322
13.4898024 1.1092323 -1.3648710
13.4594812 0.6005364 -1.3583407
13.4719734 0.0961128 -1.3609557
13.4663725 -0.4084285 -1.3597834
13.4670687 -0.9141246 -1.3600023
13.4252367 -1.4179611 -1.3512383
13.4379444 -1.9304885 -1.3540974
13.4438295 -2.4482787 -1.3555348
13.3707542 -2.9561722 -1.3402097
13.3797970 -3.4120872 -1.3422906
13.3385677 -3.8615632 -1.3336656
13.3409872 -4.3309727 -1.3342679
13.3044338 -4.7963815 -1.3265216
13.3976965 -2.8870268 -1.3459051
13.4321203 -2.3719642 -1.3530200
13.4234390 -1.8551544 -1.3509917
13.4688015 -1.3497317 -1.3604705
13.4959583 -0.8435669 -1.3661244
13.4560661 -0.3360624 -1.3575888
13.4712963 0.1681952 -1.3608139
13.5172405 0.6756010 -1.3706167
13.4839344 1.1814175 -1.3636415
1.3411132 0.1683105 1.2151678
1.1049372 0.1809252 1.2653135
0.9658533 0.1955434 1.2948406
0.7651564 0.3764782 1.3318847
0.8059961 0.3442577 1.3228768
0.8259512 0.3269049 1.3184843
0.7780572 0.2793693 1.3290081
0.8560851 0.2766583 1.3118641
0.9229004 0.2658063 1.2971895
0.9187787 0.2329125 1.2981069
0.8419819 0.1848578 1.3149942
1.0042375 0.1813021 1.2793593
1.1913285 0.1692262 1.2382723
1.4636254 0.1521699 1.1784697
13.3752804 0.8852194 -1.4381621
13.3004255 0.3802044 -1.4216435
13.3417063 -0.1191534 -1.4306955
13.3528557 -0.6205445 -1.4331894
13.2973499 -1.1189179 -1.4210982
13.3452559 -1.6288909 -1.4317751
13.2538147 -2.1248300 -1.4118788
13.2645378 -2.6402023 -1.4144530
13.2322025 -3.1538796 -1.4075720
13.2818871 -3.6206417 -1.4186687
13.2456341 -4.0724616 -1.4108500
13.2408485 -4.5417442 -1.4098930
13.1285572 -4.9804025 -1.3852310
13.0299234 -5.3465199 -1.3634880
12.9886332 -5.7407775 -1.3542550
12.9137630 -6.1263165 -1.3375301
12.6968946 -6.3602982 -1.2895668
12.7554359 -7.0890694 -1.3014853
12.5057907 -7.2158465 -1.2461815
12.4823618 -7.6552057 -1.2400639
12.4656143 -7.9234600 -1.2356813
12.4738846 -7.7422905 -1.2379785
12.5007811 -7.5746250 -1.2443213
12.5425034 -7.3268919 -1.2540669
12.6010351 -7.0919003 -1.2674234
12.7513580 -6.4732842 -1.3014395
12.8378401 -6.1747870 -1.3207779
12.9588909 -5.8108330 -1.3476744
12.9796314 -5.4073234 -1.3524122
12.8401604 -4.9498630 -1.3218443
13.1711426 -4.5968609 -1.3945830
13.1662140 -4.1253905 -1.3934171
13.1571741 -3.6624968 -1.3912911
13.1327763 -3.2046466 -1.3857558
13.1411467 -2.7623708 -1.3874054
13.1350603 -2.2504289 -1.3858483
13.1393890 -1.2475682 -1.3864365
13.1874161 -0.7545645 -1.3968711
13.1206064 0.2343761 -1.3821330
1.6352061 0.1523142 1.1407819
1.3140111 0.1723083 1.2113250
1.0421491 0.1766358 1.2710347
0.8916513 0.1857697 1.3040849
0.9804805 0.2374010 1.2845531
0.9137984 0.2526117 1.2991934
0.7654993 0.2383544 1.3317738
0.8502125 0.2950302 1.3131515
0.8521178 0.3267432 1.3127325
0.8094944 0.3355404 1.3221045
0.7910982 0.3787667 1.3261755
0.7284109 0.3681462 1.3399682
0.8420060 0.4426919 1.3150321
0.7632046 0.3806109 1.3323187
0.7598030 0.3587911 1.3330479
0.7911972 0.3480092 1.3261334
0.8678725 0.3543012 1.3092737
0.8423383 0.3178267 1.3148812
0.8054162 0.2746590 1.3229969
0.8368576 0.2556625 1.3160933
0.8914915 0.2413107 1.3040971
0.9697967 0.2293201 1.2869029
1.0252876 0.2021723 1.2747270
1.0318438 0.1635337 1.2733034
1.2914685 0.1552931 1.2162824
13.1168203 1.0801362 -1.3814342
13.1466846 0.5874330 -1.3878965
13.0856848 0.0934925 -1.3744562
