<<<<<<< HEAD
# .PCD v.7 - Point Cloud Data file format
#POINTS 3250
#TIMESTAMP 1112234
#VDY_TX 10.0
#VDY_TY 0.5
#VDY_TZ 0.0
#VDY_RX 0.0
#VDY_RY 0.0
#VDY_RZ 0.0
VERSION .7
FIELDS x y z
SIZE 4 4 4
TYPE F F F
COUNT 1 1 1
WIDTH 1883
HEIGHT 1
VIEWPOINT 0 0 0 1 0 0 0
POINTS 1883
DATA ascii
-15.3438 1.85156 0.335938
-5.52344 0.421875 0.117188
-5.80469 0.460938 0.125
-6.14063 0.515625 0.132813
-6.60938 0.585938 0.148438
-7.26563 0.6875 0.164063
-8.34375 0.859375 0.195313
-10.4453 1.17969 0.234375
-15.3125 1.9375 0.34375
-5.53125 0.4375 0.117188
-5.79688 0.476563 0.125
-6.14844 0.539063 0.132813
-6.59375 0.609375 0.148438
-7.24219 0.710938 0.171875
-8.35156 0.890625 0.195313
-10.4063 1.22656 0.234375
-15.3359 2.02344 0.335938
-5.52344 0.453125 0.117188
-5.79688 0.492188 0.125
-6.125 0.546875 0.132813
-6.59375 0.632813 0.148438
-7.25 0.742188 0.171875
-8.35156 0.929688 0.195313
-10.4219 1.28125 0.234375
-15.2969 2.10156 0.335938
-5.52344 0.460938 0.117188
-5.78906 0.507813 0.125
-6.14063 0.570313 0.132813
-6.58594 0.648438 0.148438
-7.24219 0.765625 0.171875
-8.33594 0.960938 0.195313
-10.4063 1.32031 0.234375
-15.2813 2.17969 0.335938
-5.52344 0.476563 0.117188
-5.78906 0.523438 0.125
-6.10938 0.585938 0.140625
-6.59375 0.671875 0.148438
-7.23438 0.789063 0.171875
-8.35156 1 0.195313
-10.4063 1.375 0.234375
-15.2969 2.27344 0.335938
-5.50781 0.492188 0.117188
-5.78906 0.546875 0.125
-6.10938 0.601563 0.132813
-6.57031 0.695313 0.148438
-7.22656 0.820313 0.171875
-8.34375 1.03125 0.195313
-10.4063 1.42188 0.234375
-15.3125 2.35938 0.335938
-5.51563 0.507813 0.117188
-5.78125 0.554688 0.125
-6.125 0.625 0.132813
-6.57031 0.710938 0.148438
-7.23438 0.84375 0.171875
-8.33594 1.0625 0.195313
-10.3828 1.46875 0.234375
-15.3594 2.45313 0.335938
-5.5 0.515625 0.117188
-5.77344 0.570313 0.125
-6.10938 0.640625 0.132813
-6.57813 0.742188 0.148438
-7.22656 0.867188 0.171875
-8.34375 1.10156 0.1875
-10.3984 1.52344 0.234375
-15.4063 2.54688 0.335938
-5.50781 0.53125 0.117188
-5.77344 0.59375 0.125
-6.10938 0.664063 0.132813
-6.55469 0.757813 0.148438
-7.22656 0.898438 0.164063
-8.32813 1.13281 0.195313
-10.3594 1.5625 0.234375
-15.4141 2.64063 0.335938
-5.51563 0.546875 0.117188
-5.76563 0.609375 0.125
-6.09375 0.679688 0.140625
-6.5625 0.78125 0.148438
-7.21094 0.921875 0.171875
-8.32813 1.17188 0.1875
-10.3672 1.61719 0.234375
-15.4063 2.72656 0.335938
-5.49219 0.5625 0.117188
-5.77344 0.625 0.125
-6.07813 0.695313 0.140625
-6.54688 0.796875 0.148438
-7.20313 0.945313 0.171875
-8.29688 1.19531 0.195313
-10.3438 1.66406 0.234375
-15.3906 2.80469 0.335938
-5.5 0.578125 0.117188
-5.76563 0.640625 0.125
-6.09375 0.710938 0.132813
-6.55469 0.820313 0.148438
-7.20313 0.976563 0.171875
-8.32031 1.23438 0.1875
-10.3359 1.71094 0.234375
-15.3594 2.88281 0.335938
-5.48438 0.585938 0.117188
-5.76563 0.65625 0.125
-6.07031 0.726563 0.140625
-6.5625 0.84375 0.148438
-7.19531 1 0.171875
-8.3125 1.27344 0.1875
-10.3203 1.75781 0.234375
-15.3438 2.96875 0.335938
-5.47656 0.601563 0.117188
-5.75781 0.671875 0.125
-6.08594 0.75 0.132813
-6.53906 0.867188 0.148438
-7.21875 1.03125 0.164063
-8.30469 1.30469 0.1875
-10.3281 1.80469 0.234375
-15.3359 3.05469 0.335938
-5.48438 0.617188 0.117188
-5.75 0.679688 0.125
-6.07031 0.765625 0.140625
-6.53906 0.890625 0.148438
-7.19531 1.05469 0.164063
-8.28906 1.33594 0.1875
-10.3359 1.85938 0.234375
-15.2813 3.13281 0.335938
-5.46094 0.625 0.117188
-5.75781 0.703125 0.125
-6.0625 0.78125 0.140625
-6.53906 0.90625 0.148438
-7.1875 1.07813 0.164063
-8.26563 1.36719 0.195313
-10.3203 1.90625 0.234375
-15.2734 3.21875 0.335938
-5.47656 0.640625 0.117188
-5.74219 0.71875 0.125
-6.07031 0.804688 0.132813
-6.52344 0.929688 0.148438
-7.17969 1.10938 0.164063
-8.26563 1.39844 0.1875
-10.2969 1.95313 0.234375
-15.2031 3.28125 0.335938
-5.46094 0.65625 0.117188
-5.74219 0.734375 0.125
-6.05469 0.820313 0.140625
-6.52344 0.953125 0.148438
-7.17188 1.13281 0.164063
-8.25 1.42969 0.195313
-10.3047 2.00781 0.234375
-15.1563 3.35938 0.335938
-5.46094 0.671875 0.117188
-5.72656 0.742188 0.125
-6.0625 0.84375 0.132813
-6.51563 0.96875 0.148438
-7.17188 1.15625 0.164063
-8.25 1.46875 0.1875
-10.2891 2.05469 0.234375
-15.1484 3.44531 0.335938
-5.46875 0.6875 0.117188
-5.72656 0.765625 0.125
-6.04688 0.851563 0.140625
-6.50781 0.992188 0.148438
-7.16406 1.1875 0.164063
-8.25781 1.50781 0.1875
-10.2656 2.09375 0.234375
-15.1016 3.51563 0.335938
-5.46094 0.695313 0.117188
-5.72656 0.78125 0.125
-6.04688 0.875 0.132813
-6.5 1.01563 0.148438
-7.15625 1.21094 0.164063
-8.22656 1.53125 0.195313
-10.2813 2.14844 0.234375
-15.0781 3.60156 0.335938
-5.45313 0.710938 0.117188
-5.71875 0.796875 0.125
-6.04688 0.898438 0.132813
-6.50781 1.03906 0.148438
-7.14844 1.23438 0.164063
-8.23438 1.57031 0.1875
-10.2656 2.19531 0.234375
-15.0469 3.67969 0.335938
-5.44531 0.726563 0.117188
-5.71875 0.8125 0.125
-6.03125 0.90625 0.140625
-6.50781 1.0625 0.148438
-7.14063 1.25781 0.164063
-8.21094 1.60156 0.1875
-10.2578 2.25 0.234375
-15.0234 3.75781 0.335938
-5.44531 0.742188 0.117188
-5.70313 0.820313 0.125
-33.8906 9.96875 1.59375
-6.03125 0.929688 0.132813
-6.49219 1.07813 0.148438
-7.14844 1.28906 0.164063
-8.21094 1.63281 0.1875
-10.2422 2.29688 0.234375
-15.0234 3.84375 0.335938
-5.45313 0.757813 0.117188
-5.69531 0.835938 0.125
-33.7109 10.1406 1.59375
-6.01563 0.945313 0.140625
-6.49219 1.10156 0.148438
-7.13281 1.3125 0.164063
-8.20313 1.67188 0.1875
-10.2266 2.34375 0.234375
-14.9688 3.91406 0.335938
-5.42188 0.757813 0.117188
-5.70313 0.859375 0.125
-33.5391 10.3203 1.58594
-6.02344 0.960938 0.132813
-6.47656 1.11719 0.148438
-7.11719 1.33594 0.164063
-8.1875 1.70313 0.1875
-10.2266 2.39063 0.234375
-14.9063 3.98438 0.335938
-5.4375 0.78125 0.117188
-5.6875 0.867188 0.125
-33.3828 10.4922 1.58594
-6.02344 0.984375 0.132813
-6.47656 1.14063 0.148438
-7.11719 1.36719 0.164063
-8.17969 1.73438 0.1875
-10.2422 2.45313 0.226563
-14.875 4.0625 0.335938
-5.42188 0.789063 0.117188
-5.6875 0.882813 0.125
-33.125 10.6406 1.57813
-6 1 0.140625
-6.47656 1.16406 0.148438
-7.10156 1.39063 0.164063
-8.17969 1.77344 0.1875
-10.2266 2.5 0.226563
-14.8516 4.14063 0.335938
-5.41406 0.804688 0.117188
-5.67969 0.898438 0.125
-32.9531 10.8125 1.57031
-6.01563 1.02344 0.132813
-6.46094 1.1875 0.148438
-7.10938 1.42188 0.164063
-8.16406 1.80469 0.1875
-10.2109 2.54688 0.226563
-14.7969 4.21094 0.335938
-5.42188 0.820313 0.117188
-5.67188 0.914063 0.125
-32.7813 10.9688 1.57031
-6 1.03906 0.132813
-6.46094 1.21094 0.148438
-7.09375 1.4375 0.164063
-8.16406 1.83594 0.1875
-10.2188 2.60156 0.226563
-14.7422 4.28125 0.335938
-5.40625 0.828125 0.117188
-5.67188 0.929688 0.125
-32.5938 11.1406 1.5625
-6 1.05469 0.132813
-6.44531 1.22656 0.148438
-7.08594 1.46875 0.164063
-8.14844 1.86719 0.1875
-10.2422 2.66406 0.226563
-14.7422 4.375 0.335938
-5.40625 0.84375 0.117188
-5.66406 0.945313 0.125
-32.4141 11.3047 1.5625
-6 1.07813 0.132813
-6.44531 1.25 0.148438
-7.0625 1.48438 0.164063
-8.13281 1.89844 0.1875
-10.2188 2.71094 0.226563
-14.6875 4.4375 0.335938
-5.40625 0.859375 0.117188
-5.66406 0.960938 0.125
-32.2578 11.4766 1.5625
-5.97656 1.08594 0.132813
-6.44531 1.27344 0.148438
-7.0625 1.51563 0.164063
-8.125 1.9375 0.1875
-10.1953 2.75 0.226563
-14.6641 4.52344 0.335938
-5.39063 0.867188 0.117188
-5.65625 0.976563 0.125
-32.1172 11.6406 1.55469
-5.97656 1.10938 0.132813
-6.42969 1.28906 0.148438
-7.05469 1.53906 0.164063
-8.10156 1.96094 0.1875
-10.1875 2.80469 0.226563
-14.6719 4.60938 0.335938
-5.39844 0.890625 0.117188
-5.64844 0.992188 0.125
-24.8359 8.875 1.28125
-5.96875 1.125 0.132813
-6.42969 1.3125 0.148438
-7.03906 1.5625 0.164063
-8.10938 2 0.1875
-10.1641 2.85156 0.226563
-14.6953 4.71094 0.335938
-5.38281 0.898438 0.117188
-5.64844 1.00781 0.125
-24.4688 8.90625 1.27344
-5.96875 1.14063 0.132813
-6.41406 1.32813 0.148438
-7.05469 1.60156 0.164063
-8.07031 2.02344 0.1875
-10.1328 2.89063 0.226563
-14.6563 4.78906 0.335938
-5.38281 0.914063 0.117188
-5.625 1.01563 0.125
-24.3672 9.03906 1.27344
-5.97656 1.16406 0.132813
-6.40625 1.35156 0.148438
-7.02344 1.61719 0.164063
-8.07031 2.0625 0.1875
-10.125 2.94531 0.226563
-14.625 4.86719 0.335938
-5.36719 0.921875 0.117188
-5.64063 1.03906 0.125
-24.3125 9.17969 1.27344
-5.94531 1.17188 0.132813
-6.40625 1.375 0.148438
-7.00781 1.63281 0.164063
-8.04688 2.09375 0.1875
-10.1094 2.99219 0.226563
-14.6328 4.96094 0.335938
-5.35938 0.9375 0.117188
-5.625 1.05469 0.125
-24.25 9.32813 1.27344
-5.94531 1.19531 0.132813
-6.39063 1.39063 0.148438
-7.00781 1.66406 0.164063
-8.03906 2.125 0.1875
-10.0859 3.03125 0.226563
-14.625 5.05469 0.335938
-5.375 0.953125 0.117188
-5.625 1.07031 0.125
-24.1719 9.46875 1.27344
-5.9375 1.21094 0.132813
-24.5391 9.63281 1.82813
-6.38281 1.41406 0.148438
-6.98438 1.6875 0.164063
-8.04688 2.16406 0.1875
-10.0547 3.07813 0.226563
-14.5625 5.11719 0.335938
-5.34375 0.960938 0.117188
-5.625 1.08594 0.125
-24.1016 9.60938 1.27344
-5.9375 1.23438 0.132813
-6.36719 1.42969 0.148438
-6.98438 1.71094 0.164063
-8.02344 2.19531 0.1875
-10.0547 3.13281 0.226563
-14.5313 5.19531 0.335938
-5.35938 0.976563 0.117188
-21.875 8.74219 0.71875
-5.60938 1.10156 0.125
-21.9375 8.76563 1.1875
-5.94531 1.25781 0.132813
-6.35156 1.44531 0.148438
-6.96875 1.73438 0.164063
-8.01563 2.22656 0.1875
-10.0391 3.17969 0.226563
-14.5469 5.29688 0.335938
-5.34375 0.992188 0.117188
-21.6797 8.79688 0.710938
-5.60938 1.11719 0.125
-21.7422 8.82813 1.1875
-5.91406 1.25781 0.132813
-6.34375 1.46875 0.148438
-6.95313 1.75781 0.164063
-8 2.25781 0.1875
-10.0547 3.24219 0.226563
-14.4688 5.35156 0.335938
-5.33594 1 0.117188
-21.5625 8.89844 0.710938
-5.60156 1.13281 0.125
-21.7266 8.97656 1.1875
-5.91406 1.28125 0.132813
-24.3594 10.2578 1.82813
-6.32813 1.48438 0.148438
-6.97656 1.79688 0.164063
-8.00781 2.30469 0.1875
-10.0078 3.27344 0.226563
-14.4219 5.42188 0.335938
-5.34375 1.02344 0.117188
-21.4844 9.01563 0.710938
-5.58594 1.14063 0.125
-5.89844 1.29688 0.132813
-6.32813 1.50781 0.148438
-6.9375 1.8125 0.164063
-7.98438 2.32813 0.1875
-10 3.32813 0.226563
-14.3672 5.49219 0.335938
-5.32031 1.02344 0.117188
-21.6328 9.24219 0.71875
-5.58594 1.16406 0.125
-5.89063 1.3125 0.132813
-6.32031 1.53125 0.148438
-6.9375 1.84375 0.164063
-7.96875 2.35938 0.1875
-9.99219 3.38281 0.226563
-14.3203 5.5625 0.335938
-5.32813 1.04688 0.117188
-21.5859 9.38281 0.71875
-5.57813 1.17188 0.125
-5.89844 1.33594 0.132813
-6.3125 1.54688 0.148438
-6.91406 1.85938 0.164063
-7.95313 2.39844 0.1875
-9.96094 3.42188 0.226563
-14.2969 5.64844 0.335938
-5.3125 1.05469 0.117188
-21.3438 9.41406 0.710938
-5.57031 1.1875 0.125
-5.88281 1.35156 0.132813
-6.30469 1.57031 0.148438
-6.90625 1.88281 0.164063
-7.94531 2.42969 0.1875
-9.96094 3.47656 0.226563
-14.1875 5.6875 0.335938
-5.3125 1.07031 0.117188
-21.2813 9.53906 0.710938
-5.5625 1.20313 0.125
-5.875 1.36719 0.132813
-6.28906 1.58594 0.148438
-6.90625 1.91406 0.164063
-7.92969 2.46094 0.1875
-9.92969 3.52344 0.226563
-14.1719 5.76563 0.335938
-5.32031 1.08594 0.117188
-21.1875 9.64844 0.710938
-5.55469 1.21094 0.125
-5.85938 1.38281 0.132813
-6.28125 1.60938 0.148438
-6.88281 1.92969 0.164063
-7.92969 2.49219 0.1875
-9.89844 3.5625 0.226563
-14.1172 5.82813 0.335938
-5.30469 1.09375 0.117188
-21.25 9.84375 0.710938
-5.54688 1.23438 0.125
-5.85156 1.39844 0.132813
-6.27344 1.63281 0.148438
-6.88281 1.96094 0.164063
-7.90625 2.52344 0.1875
-9.89063 3.60938 0.226563
-14.0703 5.90625 0.335938
-5.29688 1.10938 0.117188
-21.0938 9.91406 0.710938
-5.53906 1.24219 0.125
-19.6641 9.11719 1.125
-5.85938 1.42188 0.132813
-6.25781 1.64844 0.148438
-6.86719 1.98438 0.164063
-7.89844 2.5625 0.1875
-9.85156 3.64844 0.226563
-14.0313 5.97656 0.335938
-5.28125 1.11719 0.117188
-21.0469 10.0547 0.710938
-5.53125 1.25781 0.125
-18.8906 8.82813 1.09375
-5.83594 1.42969 0.132813
-6.25781 1.67188 0.148438
-6.85938 2.00781 0.164063
-7.89063 2.59375 0.1875
-9.82813 3.69531 0.226563
-14.0156 6.0625 0.335938
-5.28125 1.13281 0.117188
-5.52344 1.27344 0.125
-18.7266 8.875 1.09375
-5.82813 1.44531 0.132813
-6.22656 1.67969 0.148438
-6.85156 2.03906 0.164063
-7.875 2.625 0.1875
-9.80469 3.74219 0.226563
-13.9531 6.125 0.335938
-5.28125 1.14844 0.117188
-18.9922 9.17188 0.6875
-5.51563 1.28906 0.125
-18.625 8.96094 1.09375
-5.8125 1.46094 0.132813
-6.22656 1.70313 0.148438
-6.82813 2.05469 0.164063
-7.85938 2.65625 0.1875
-9.78125 3.78125 0.226563
-13.8984 6.19531 0.335938
-5.25781 1.14844 0.117188
-19.0156 9.32813 0.6875
-5.51563 1.30469 0.117188
-18.5547 9.05469 1.09375
-5.80469 1.47656 0.132813
-6.21094 1.71875 0.148438
-6.82813 2.08594 0.164063
-7.85156 2.69531 0.1875
-9.75 3.82031 0.226563
-13.8672 6.26563 0.335938
-5.25781 1.17188 0.117188
-18.4922 9.15625 0.679688
-5.5 1.3125 0.125
-18.4766 9.14844 1.09375
-5.79688 1.49219 0.132813
-6.20313 1.74219 0.148438
-6.8125 2.10938 0.164063
-7.84375 2.72656 0.179688
-9.71875 3.85938 0.226563
-13.8281 6.33594 0.335938
-5.24219 1.17969 0.117188
-18.4141 9.25781 0.679688
-5.50781 1.33594 0.117188
-18.4063 9.25 1.08594
-5.78125 1.50781 0.132813
-18.75 9.46094 1.52344
-6.20313 1.76563 0.148438
-6.8125 2.14063 0.164063
-7.82031 2.75781 0.1875
-9.6875 3.90625 0.226563
-13.7813 6.41406 0.335938
-5.25 1.19531 0.117188
-5.48438 1.34375 0.125
-18.3516 9.36719 1.09375
-5.78125 1.53125 0.132813
-18.6328 9.53906 1.51563
-6.17969 1.78125 0.148438
-6.80469 2.17188 0.164063
-7.79688 2.78125 0.1875
-9.66406 3.94531 0.226563
-13.7109 6.46875 0.335938
-5.24219 1.21094 0.117188
-18.3203 9.48438 0.679688
-5.47656 1.35938 0.125
-18.2813 9.46094 1.09375
-5.77344 1.54688 0.132813
-18.5859 9.65625 1.51563
-6.17188 1.79688 0.148438
-6.77344 2.17969 0.164063
-7.80469 2.82813 0.179688
-9.64063 3.99219 0.226563
-13.6484 6.53125 0.335938
-5.22656 1.21875 0.117188
-5.48438 1.38281 0.117188
-5.75781 1.55469 0.132813
-18.5234 9.75781 1.51563
-6.15625 1.82031 0.148438
-6.76563 2.21094 0.164063
-7.77344 2.85156 0.179688
-9.61719 4.03906 0.226563
-13.6328 6.61719 0.335938
-5.22656 1.23438 0.117188
-5.45313 1.38281 0.125
-16.3125 8.46875 1.01563
-5.75 1.57813 0.132813
-18.4609 9.86719 1.52344
-6.14844 1.83594 0.148438
-6.75781 2.23438 0.164063
-7.75781 2.88281 0.179688
-9.57813 4.07031 0.226563
-13.6094 6.70313 0.335938
-5.21094 1.24219 0.117188
-16.0938 8.44531 0.65625
-5.46094 1.40625 0.117188
-16.0859 8.4375 1.00781
-5.73438 1.58594 0.132813
-18.3906 9.96875 1.52344
-6.14063 1.85938 0.148438
-6.74219 2.25 0.164063
-7.74219 2.91406 0.179688
-9.5625 4.11719 0.226563
-13.5703 6.77344 0.335938
-5.20313 1.25781 0.117188
-5.4375 1.41406 0.125
-15.9375 8.47656 1
-5.72656 1.60938 0.132813
-16.5 8.85156 1.39063
-6.11719 1.86719 0.148438
-6.73438 2.28125 0.164063
-7.73438 2.95313 0.179688
-9.52344 4.16406 0.226563
-13.5547 6.86719 0.335938
-5.20313 1.27344 0.117188
-15.8125 8.50781 0.65625
-5.4375 1.42969 0.125
-15.8516 8.53906 1
-5.71875 1.61719 0.132813
-6.11719 1.89063 0.148438
-6.71875 2.30469 0.164063
-7.70313 2.97656 0.179688
-9.5 4.20313 0.226563
-13.4844 6.92188 0.335938
-5.17969 1.27344 0.117188
-15.7266 8.57813 0.648438
-5.42969 1.44531 0.117188
-15.7813 8.61719 1
-5.70313 1.64063 0.132813
-6.09375 1.90625 0.148438
-6.71094 2.33594 0.15625
-7.67969 3.00781 0.179688
-9.46875 4.25 0.226563
-13.4141 6.97656 0.335938
-5.1875 1.29688 0.117188
-15.6953 8.6875 0.65625
-5.41406 1.46094 0.117188
-15.7188 8.70313 1
-5.71094 1.66406 0.132813
-15.8672 8.80469 1.35938
-6.07813 1.92188 0.148438
-6.69531 2.35938 0.15625
-7.67188 3.03906 0.179688
-9.42969 4.28125 0.226563
-13.3672 7.04688 0.335938
-5.17188 1.30469 0.117188
-5.41406 1.46875 0.117188
-15.6641 8.78125 1
-5.67188 1.65625 0.132813
-15.8281 8.89844 1.35938
-6.07813 1.94531 0.148438
-6.67188 2.375 0.164063
-7.65625 3.07031 0.179688
-9.40625 4.32031 0.226563
-13.2656 7.07813 0.335938
-5.16406 1.3125 0.117188
-5.39063 1.47656 0.125
-15.6016 8.875 1
-5.6875 1.6875 0.132813
-15.7578 8.98438 1.35938
-6.0625 1.96094 0.148438
-6.67188 2.40625 0.15625
-7.625 3.10156 0.179688
-9.375 4.36719 0.226563
-13.2422 7.16406 0.335938
-5.17188 1.33594 0.109375
-15.6016 9 0.65625
-5.39063 1.5 0.117188
-15.5469 8.96094 1
-5.66406 1.70313 0.132813
-6.0625 1.99219 0.148438
-6.64844 2.42188 0.15625
-7.625 3.14063 0.179688
-9.35156 4.40625 0.226563
-13.2031 7.23438 0.335938
-5.15625 1.34375 0.117188
-15.5313 9.08594 0.65625
-5.39063 1.52344 0.117188
-15.4844 9.04688 1
-5.65625 1.71875 0.132813
-16.7422 9.98438 1.4375
-6.03906 2 0.148438
-6.64063 2.45313 0.15625
-7.59375 3.16406 0.179688
-9.32031 4.44531 0.226563
-13.2031 7.34375 0.335938
-5.15625 1.35938 0.109375
-15.4844 9.17969 0.65625
-5.36719 1.52344 0.125
-15.4375 9.14844 1
-5.64844 1.73438 0.132813
-6.03125 2.02344 0.148438
-6.625 2.46875 0.15625
-7.59375 3.20313 0.179688
-9.28125 4.48438 0.226563
-13.1797 7.4375 0.335938
-5.125 1.35938 0.117188
-15.4219 9.25781 0.65625
-5.35938 1.53906 0.117188
-15.4063 9.25 1
-5.63281 1.75 0.132813
-6.01563 2.03906 0.148438
-6.60938 2.5 0.15625
-7.57031 3.23438 0.179688
-9.26563 4.53125 0.226563
-13.1016 7.48438 0.335938
-5.125 1.375 0.117188
-15.3516 9.33594 0.65625
-5.34375 1.54688 0.125
-15.3672 9.35156 1.00781
-5.63281 1.76563 0.132813
-6 2.05469 0.148438
-6.60156 2.53125 0.15625
-7.55469 3.26563 0.179688
-9.22656 4.57031 0.226563
-13.0391 7.53906 0.335938
-5.13281 1.39844 0.109375
-5.34375 1.5625 0.117188
-15.3281 9.44531 1.00781
-5.60938 1.77344 0.132813
-5.99219 2.07813 0.148438
-6.59375 2.54688 0.15625
-7.53906 3.29688 0.179688
-9.21094 4.61719 0.226563
-13.0078 7.60938 0.335938
-5.10938 1.39844 0.117188
-5.33594 1.57813 0.117188
-15.2891 9.55469 1.00781
-5.60938 1.79688 0.132813
-5.97656 2.09375 0.148438
-6.57813 2.57813 0.15625
-7.51563 3.32031 0.179688
-9.1875 4.66406 0.226563
-12.9844 7.70313 0.335938
-5.10938 1.41406 0.117188
-5.32031 1.58594 0.117188
-13.5938 8.3125 0.929688
-5.60156 1.8125 0.132813
-5.96094 2.10938 0.148438
-6.5625 2.59375 0.15625
-7.50781 3.36719 0.179688
-9.15625 4.70313 0.226563
-12.9375 7.78125 0.335938
-5.10156 1.42969 0.109375
-5.32031 1.60938 0.117188
-13.3438 8.22656 0.921875
-5.57813 1.82031 0.132813
-5.96094 2.14063 0.140625
-6.54688 2.625 0.15625
-7.48438 3.39063 0.179688
-9.125 4.75 0.226563
-12.8984 7.85938 0.335938
-5.09375 1.4375 0.109375
-5.29688 1.61719 0.117188
-13.1406 8.16406 0.921875
-5.57031 1.84375 0.132813
-5.92969 2.14063 0.148438
-6.53906 2.64844 0.15625
-7.46094 3.42188 0.179688
-9.11719 4.80469 0.226563
-12.8516 7.92188 0.335938
-5.08594 1.45313 0.109375
-5.28906 1.625 0.125
-12.9609 8.13281 0.914063
-5.55469 1.85156 0.132813
-5.92969 2.17188 0.140625
-6.50781 2.66406 0.15625
-7.4375 3.45313 0.179688
-9.08594 4.85156 0.226563
-12.8281 8.01563 0.335938
-5.0625 1.45313 0.117188
-5.28125 1.64063 0.117188
-12.8438 8.14844 0.90625
-5.54688 1.875 0.132813
-13.5625 8.76563 1.25
-5.91406 2.1875 0.140625
-6.50781 2.69531 0.15625
-7.41406 3.47656 0.179688
-9.07031 4.90625 0.21875
-12.7578 8.07031 0.335938
-5.0625 1.46875 0.117188
-5.26563 1.64844 0.117188
-12.7109 8.14063 0.90625
-5.53906 1.88281 0.132813
-13.2422 8.60156 1.23438
-5.89844 2.20313 0.140625
-6.49219 2.71875 0.15625
-7.39844 3.50781 0.179688
-9.03125 4.9375 0.21875
-12.7031 8.13281 0.335938
-5.05469 1.48438 0.109375
-12.6016 8.16406 0.617188
-5.25781 1.66406 0.117188
-12.6406 8.19531 0.90625
-5.52344 1.89844 0.132813
-12.9922 8.50781 1.21875
-5.89844 2.22656 0.140625
-6.47656 2.74219 0.15625
-7.36719 3.53125 0.179688
-9.01563 4.99219 0.21875
-12.6563 8.20313 0.335938
-5.03906 1.49219 0.117188
-12.5547 8.23438 0.617188
-5.24219 1.67188 0.125
-12.5938 8.26563 0.90625
-5.51563 1.92188 0.132813
-12.7266 8.39063 1.20313
-5.875 2.24219 0.140625
-6.46094 2.76563 0.15625
-7.34375 3.5625 0.179688
-8.96875 5.01563 0.21875
-12.625 8.29688 0.335938
-5.03906 1.51563 0.109375
-12.5313 8.32031 0.625
-5.23438 1.6875 0.125
-12.5391 8.32813 0.90625
-5.5 1.92188 0.132813
-12.6719 8.45313 1.20313
-5.85938 2.25781 0.140625
-6.4375 2.78125 0.15625
-7.33594 3.60156 0.179688
-8.98438 5.09375 0.21875
-12.5469 8.33594 0.335938
-5.02344 1.51563 0.109375
-12.4844 8.39844 0.625
-5.23438 1.71094 0.117188
-12.5156 8.42188 0.90625
-5.49219 1.94531 0.132813
-12.6563 8.5625 1.20313
-5.85156 2.28125 0.140625
-6.42188 2.80469 0.15625
-7.30469 3.61719 0.179688
-8.9375 5.125 0.21875
-12.4844 8.39844 0.335938
-5.02344 1.53125 0.109375
-12.4531 8.47656 0.625
-5.21094 1.71094 0.125
-12.4688 8.5 0.90625
-5.48438 1.96875 0.125
-12.625 8.64063 1.20313
-5.83594 2.29688 0.140625
-6.39844 2.82031 0.15625
-7.29688 3.65625 0.179688
-8.89844 5.15625 0.21875
-12.3984 8.42969 0.335938
-5 1.53125 0.117188
-12.4297 8.57813 0.625
-5.20313 1.72656 0.117188
-12.4219 8.57031 0.90625
-5.46875 1.97656 0.132813
-12.5703 8.71094 1.21094
-5.83594 2.32031 0.140625
-6.39063 2.85156 0.15625
-7.25781 3.67188 0.179688
-8.875 5.20313 0.21875
-12.3125 8.46875 0.335938
-5 1.55469 0.109375
-12.5 8.76563 0.625
-5.19531 1.74219 0.117188
-12.375 8.64063 0.90625
-5.46094 1.99219 0.125
-5.8125 2.32813 0.140625
-6.375 2.86719 0.15625
-7.22656 3.69531 0.179688
-8.82031 5.22656 0.21875
-12.2656 8.53906 0.335938
-12.3594 8.74219 0.625
-5.1875 1.75781 0.117188
-12.3438 8.72656 0.914063
-5.4375 2 0.132813
-5.80469 2.35938 0.140625
-6.35156 2.89063 0.15625
-7.20313 3.71875 0.179688
-8.80469 5.28125 0.21875
-12.2031 8.59375 0.335938
-12.3125 8.82813 0.625
-5.17969 1.77344 0.117188
-12.2969 8.8125 0.914063
-5.42969 2.01563 0.132813
-5.78125 2.36719 0.140625
-6.33594 2.91406 0.15625
-7.17188 3.73438 0.179688
-8.75 5.30469 0.21875
-12.1328 8.64063 0.335938
-5.16406 1.77344 0.117188
-12.2734 8.90625 0.914063
-5.42188 2.03906 0.125
-5.77344 2.39063 0.140625
-6.3125 2.92969 0.15625
-7.15625 3.77344 0.179688
-8.70313 5.32813 0.21875
-12.0938 8.71875 0.335938
-12.2266 8.97656 0.625
-5.15625 1.78906 0.117188
-12.2422 8.99219 0.914063
-5.40625 2.04688 0.132813
-5.76563 2.40625 0.140625
-6.29688 2.94531 0.15625
-7.13281 3.80469 0.179688
-8.67969 5.375 0.21875
-12.0391 8.78906 0.335938
-12.1953 9.07813 0.625
-5.14063 1.79688 0.117188
-12.2109 9.09375 0.914063
-5.39844 2.07031 0.125
-5.74219 2.41406 0.140625
-6.28125 2.97656 0.15625
-7.10156 3.82813 0.179688
-8.64063 5.41406 0.21875
-11.9844 8.85156 0.335938
-12.1719 9.17188 0.625
-5.13281 1.8125 0.117188
-12.1719 9.17188 0.914063
-5.375 2.07031 0.125
-5.73438 2.4375 0.140625
-6.25781 2.99219 0.15625
-7.07813 3.84375 0.179688
-8.59375 5.4375 0.21875
-11.9453 8.92969 0.335938
-12.1172 9.24219 0.625
-5.125 1.83594 0.117188
-12.125 9.25 0.921875
-5.36719 2.09375 0.125
-13.1875 10.3828 1.30469
-5.71094 2.46094 0.140625
-6.23438 3.00781 0.15625
-7.05469 3.875 0.179688
-8.5625 5.47656 0.21875
-11.8906 9.00781 0.335938
-12.0938 9.34375 0.625
-5.10938 1.83594 0.117188
-12.0859 9.33594 0.921875
-5.35938 2.10938 0.125
-5.71094 2.49219 0.140625
-6.21875 3.03125 0.15625
-7.01563 3.89063 0.179688
-8.54688 5.53125 0.21875
-11.8281 9.0625 0.335938
-12.0469 9.42969 0.625
-5.10156 1.85156 0.117188
-12.0469 9.42969 0.921875
-5.33594 2.11719 0.125
-5.70313 2.50781 0.132813
-20.0859 18.1875 2.48438
-6.19531 3.05469 0.15625
-6.99219 3.91406 0.179688
-8.49219 5.55469 0.21875
-11.7734 9.13281 0.335938
-12.0313 9.53125 0.625
-5.08594 1.85938 0.117188
-12.0234 9.52344 0.921875
-5.33594 2.14063 0.125
-5.6875 2.52344 0.132813
-19.8359 18.1563 2.46875
-6.1875 3.07813 0.148438
-6.96875 3.9375 0.179688
-8.44531 5.57813 0.21875
-11.7266 9.19531 0.335938
-11.9844 9.61719 0.625
-5.07031 1.875 0.117188
-11.9766 9.60156 0.921875
-5.3125 2.14844 0.125
-5.67188 2.54688 0.132813
-19.6094 18.1563 2.45313
-6.15625 3.08594 0.15625
-6.94531 3.96875 0.179688
-8.41406 5.60938 0.21875
-11.6719 9.26563 0.335938
-11.9297 9.69531 0.625
-5.0625 1.89063 0.117188
-11.9297 9.69531 0.921875
-5.30469 2.16406 0.125
-5.65625 2.55469 0.132813
-19.3984 18.1797 2.44531
-6.14844 3.11719 0.148438
-6.91406 3.99219 0.179688
-8.375 5.64844 0.21875
-11.6172 9.33594 0.335938
-10.9375 8.6875 0.609375
-5.04688 1.89844 0.117188
-11.8828 9.78125 0.929688
-5.29688 2.17969 0.125
-5.64063 2.57813 0.132813
-19.1484 18.1563 2.42969
-6.11719 3.125 0.15625
-6.89063 4.02344 0.179688
-8.32813 5.67969 0.21875
-11.5625 9.40625 0.335938
-10.7188 8.54688 0.609375
-5.04688 1.91406 0.117188
-10.9141 8.77344 0.875
-5.27344 2.1875 0.125
-5.63281 2.60156 0.132813
-18.9375 18.1484 2.41406
-6.10156 3.14844 0.148438
-6.86719 4.04688 0.179688
-8.28906 5.70313 0.21875
-11.5156 9.48438 0.335938
-10.5234 8.4375 0.609375
-5.03125 1.92188 0.117188
-10.6797 8.61719 0.867188
-5.26563 2.20313 0.125
-5.60938 2.60938 0.132813
-18.7031 18.1328 2.40625
-6.08594 3.17969 0.148438
-6.83594 4.0625 0.179688
-8.24219 5.73438 0.21875
-11.4609 9.54688 0.335938
-10.3828 8.38281 0.601563
-5.01563 1.92969 0.117188
-10.4922 8.51563 0.859375
-5.25781 2.21875 0.125
-5.60156 2.64063 0.132813
-18.4922 18.1406 2.39063
-6.05469 3.1875 0.148438
-6.8125 4.08594 0.179688
-8.21094 5.77344 0.21875
-11.4063 9.61719 0.335938
-10.2188 8.30469 0.601563
-5.00781 1.95313 0.117188
-10.3438 8.45313 0.859375
-5.23438 2.22656 0.125
-10.4141 8.53906 1.11719
-5.57813 2.64844 0.132813
-18.2734 18.125 2.38281
-6.04688 3.21094 0.148438
-6.77344 4.10938 0.179688
-8.1875 5.82031 0.21875
-11.3359 9.66406 0.335938
-10.0938 8.26563 0.601563
-10.2031 8.39844 0.851563
-5.22656 2.24219 0.125
-5.5625 2.66406 0.132813
-18.0703 18.125 2.375
-6.01563 3.22656 0.148438
-6.75781 4.14063 0.179688
-8.13281 5.83594 0.21875
-11.2813 9.73438 0.335938
-9.97656 8.23438 0.601563
-10.0703 8.35156 0.84375
-5.21094 2.25781 0.125
-5.54688 2.6875 0.132813
-6.00781 3.25 0.148438
-6.73438 4.17188 0.179688
-8.10938 5.89844 0.21875
-11.2266 9.80469 0.335938
-9.86719 8.21875 0.601563
-9.9375 8.30469 0.84375
-5.20313 2.28125 0.125
-5.53125 2.69531 0.132813
-5.98438 3.27344 0.148438
-6.70313 4.1875 0.179688
-8.07813 5.9375 0.21875
-11.1484 9.85156 0.335938
-9.77344 8.21875 0.601563
-9.83594 8.28906 0.84375
-5.17969 2.28125 0.125
-9.88281 8.35156 1.08594
-5.51563 2.71875 0.132813
-5.96875 3.29688 0.148438
-6.6875 4.22656 0.171875
-8.03125 5.96094 0.21875
-11.0078 9.79688 0.335938
-9.71094 8.24219 0.601563
-4.94531 2.00781 0.117188
-9.75781 8.30469 0.835938
-5.17188 2.30469 0.125
-9.77344 8.32813 1.07813
-5.49219 2.72656 0.132813
-5.94531 3.3125 0.148438
-6.64844 4.23438 0.179688
-7.98438 5.98438 0.21875
-10.8203 9.69531 0.335938
-9.65625 8.29688 0.601563
-4.92969 2.00781 0.117188
-9.67188 8.3125 0.835938
-5.15625 2.3125 0.125
-9.71094 8.36719 1.07813
-5.48438 2.75 0.132813
-5.92188 3.33594 0.148438
-6.63281 4.28125 0.171875
-7.9375 6.01563 0.21875
-10.7813 9.78906 0.335938
-9.61719 8.35938 0.601563
-4.92188 2.03125 0.117188
-9.61719 8.36719 0.835938
-5.14063 2.32813 0.125
-9.64844 8.40625 1.07813
-5.47656 2.77344 0.132813
-5.91406 3.35938 0.148438
-6.60156 4.29688 0.171875
-7.90625 6.05469 0.21875
-10.7344 9.875 0.335938
-9.57031 8.41406 0.601563
-4.89844 2.03125 0.117188
-9.58594 8.4375 0.835938
-5.13281 2.35156 0.125
-9.60938 8.46875 1.08594
-5.45313 2.78125 0.132813
-9.74219 8.65625 1.34375
-5.90625 3.39844 0.148438
-6.57031 4.32031 0.171875
-7.86719 6.09375 0.21875
-10.8672 10.1953 0.335938
-9.53125 8.48438 0.601563
-4.89063 2.04688 0.117188
-9.53125 8.49219 0.835938
-5.10938 2.35156 0.125
-9.57031 8.53906 1.08594
-5.4375 2.79688 0.132813
-9.69531 8.71094 1.34375
-5.86719 3.40625 0.148438
-6.55469 4.35156 0.171875
-7.82813 6.11719 0.21875
-10.8125 10.2734 0.335938
-9.48438 8.54688 0.601563
-4.89063 2.07031 0.109375
-9.49219 8.5625 0.84375
-5.10938 2.375 0.117188
-9.53125 8.60938 1.08594
-5.41406 2.80469 0.132813
-9.66406 8.79688 1.35156
-5.85938 3.4375 0.148438
-6.52344 4.36719 0.171875
-7.78906 6.15625 0.21875
-10.7734 10.3594 0.335938
-9.44531 8.61719 0.601563
-4.86719 2.07031 0.117188
-9.45313 8.625 0.84375
-5.09375 2.39063 0.117188
-9.50781 8.70313 1.09375
-5.39844 2.82813 0.132813
-5.83594 3.45313 0.148438
-6.50781 4.40625 0.171875
-7.75 6.17969 0.21875
-10.7188 10.4297 0.335938
-9.42188 8.71094 0.601563
-4.85938 2.08594 0.109375
-9.40625 8.6875 0.84375
-5.07813 2.39844 0.117188
-5.39063 2.85156 0.125
-5.8125 3.46094 0.148438
-6.46094 4.40625 0.171875
-7.70313 6.21875 0.21875
-10.6406 10.4688 0.335938
-4.84375 2.09375 0.109375
-9.375 8.76563 0.84375
-5.0625 2.41406 0.117188
-5.35938 2.85156 0.132813
-5.79688 3.49219 0.148438
-6.44531 4.45313 0.171875
-7.66406 6.24219 0.21875
-9.4375 8.86719 0.359375
-9.34375 8.84375 0.601563
-4.83594 2.10938 0.109375
-9.32813 8.82813 0.84375
-5.04688 2.42969 0.117188
-5.34375 2.86719 0.132813
-5.76563 3.50781 0.148438
-6.42188 4.48438 0.171875
-7.625 6.28125 0.21875
-9.33594 8.83594 0.359375
-9.3125 8.9375 0.601563
-4.83594 2.14063 0.109375
-9.29688 8.90625 0.84375
-5.03125 2.4375 0.117188
-5.32813 2.88281 0.132813
-5.75 3.52344 0.148438
-6.39844 4.50781 0.171875
-7.60156 6.33594 0.21875
-9.32813 8.96094 0.359375
-9.25781 8.99219 0.601563
-4.8125 2.13281 0.109375
-9.24219 8.96875 0.851563
-5.02344 2.46094 0.117188
-5.30469 2.89844 0.132813
-5.72656 3.53906 0.148438
-6.36719 4.52344 0.171875
-7.52344 6.32031 0.21875
-9.29688 9.04688 0.351563
-9.32813 9.24219 0.601563
-4.80469 2.15625 0.109375
-9.20313 9.04688 0.851563
-5 2.46094 0.117188
-5.28906 2.92188 0.125
-5.69531 3.54688 0.148438
-6.33594 4.55469 0.171875
-7.51563 6.39063 0.21875
-9.23438 9.08594 0.351563
-4.78906 2.16406 0.109375
-9.17188 9.125 0.851563
-4.99219 2.47656 0.117188
-5.27344 2.9375 0.125
-5.6875 3.58594 0.140625
-6.29688 4.5625 0.171875
-7.44531 6.39063 0.21875
-9.17969 9.14063 0.351563
-4.77344 2.17188 0.109375
-9.125 9.19531 0.851563
-4.96875 2.48438 0.117188
-5.25781 2.94531 0.125
-5.64844 3.58594 0.148438
-6.27344 4.58594 0.171875
-7.42188 6.4375 0.21875
-9.15625 9.23438 0.351563
-9.13281 9.33594 0.601563
-4.77344 2.20313 0.101563
-9.09375 9.28125 0.851563
-4.96094 2.50781 0.117188
-5.22656 2.94531 0.132813
-5.63281 3.60938 0.140625
-6.24219 4.60156 0.171875
-7.375 6.46875 0.21875
-10.1094 10.9453 0.328125
-9.15625 9.53125 0.609375
-4.75 2.19531 0.109375
-9.05469 9.35156 0.859375
-4.95313 2.53906 0.117188
-5.22656 2.98438 0.125
-5.60938 3.625 0.140625
-6.21875 4.64063 0.171875
-7.33594 6.49219 0.21875
-10.0703 11.0547 0.328125
-9.01563 9.4375 0.601563
-4.74219 2.21875 0.101563
-9.01563 9.4375 0.859375
-4.92969 2.52344 0.117188
-5.21094 3.00781 0.125
-5.58594 3.64844 0.140625
-6.1875 4.65625 0.171875
-7.30469 6.54688 0.21875
-10 11.1016 0.328125
-8.97656 9.52344 0.609375
-4.72656 2.22656 0.101563
-8.97656 9.53125 0.859375
-4.92188 2.5625 0.117188
-5.17969 2.99219 0.125
-5.55469 3.64844 0.140625
-6.14844 4.67188 0.171875
-7.25781 6.5625 0.21875
-9.94531 11.1875 0.328125
-8.94531 9.61719 0.609375
-4.71094 2.22656 0.109375
-8.92969 9.59375 0.859375
-4.90625 2.5625 0.117188
-5.15625 3.00781 0.125
-5.52344 3.64063 0.148438
-6.13281 4.71875 0.171875
-7.21094 6.59375 0.21875
-9.875 11.25 0.328125
-8.89063 9.67969 0.609375
-4.70313 2.24219 0.101563
-8.21875 8.5 0.8125
-4.89063 2.58594 0.117188
-5.14063 3.02344 0.125
-5.50781 3.67188 0.148438
-6.09375 4.72656 0.171875
-7.1875 6.65625 0.21875
-9.8125 11.3203 0.328125
-4.67969 2.24219 0.109375
-8.1875 8.57031 0.820313
-4.88281 2.60156 0.109375
-8.25781 8.70313 1.05469
-5.125 3.03906 0.125
-9.03125 10.1016 1.41406
-5.47656 3.6875 0.148438
-6.07813 4.76563 0.171875
-7.125 6.65625 0.21875
-9.73438 11.3672 0.328125
-4.66406 2.24219 0.109375
-8.03125 8.41406 0.8125
-4.85156 2.59375 0.117188
-5.10156 3.05469 0.125
-9.00781 10.2188 1.42188
-5.45313 3.70313 0.148438
-6.03906 4.77344 0.171875
-7.09375 6.70313 0.21875
-9.67188 11.4297 0.328125
-4.51563 2.01563 0.09375
-4.65625 2.26563 0.101563
-7.90625 8.32813 0.804688
-4.83594 2.60156 0.117188
-5.07813 3.05469 0.125
-8.08594 8.65625 1.27344
-5.4375 3.72656 0.140625
-6 4.78125 0.171875
-7.05469 6.73438 0.21875
-9.58594 11.4609 0.328125
-4.50781 2.02344 0.09375
-4.63281 2.26563 0.109375
-4.82031 2.625 0.109375
-7.82031 8.30469 1.01563
-5.0625 3.07813 0.125
-5.40625 3.73438 0.140625
-5.99219 4.84375 0.164063
-7.01563 6.77344 0.21875
-9.52344 11.5391 0.328125
-4.47656 2 0.101563
-4.63281 2.29688 0.101563
-4.80469 2.64063 0.109375
-5.04688 3.09375 0.125
-5.38281 3.75 0.140625
-7.85938 8.52344 1.47656
-5.95313 4.84375 0.171875
-6.97656 6.82031 0.21875
-9.45313 11.6016 0.328125
-4.48438 2.03906 0.09375
-4.60938 2.29688 0.101563
-4.79688 2.65625 0.109375
-5.02344 3.10156 0.125
-5.35938 3.75781 0.140625
-7.71094 8.375 1.45313
-5.92969 4.89063 0.164063
-6.9375 6.85938 0.210938
-9.40625 11.7031 0.328125
-4.46875 2.03906 0.09375
-4.60156 2.3125 0.101563
-4.78125 2.66406 0.109375
-5.00781 3.13281 0.125
-5.33594 3.77344 0.140625
-5.90625 4.91406 0.164063
-6.89844 6.90625 0.210938
-9.32031 11.7422 0.328125
-4.45313 2.05469 0.09375
-4.57813 2.29688 0.109375
-4.75781 2.67969 0.109375
-7.4375 8.10938 1
-4.98438 3.125 0.125
-5.3125 3.79688 0.140625
-5.875 4.9375 0.164063
-6.84375 6.91406 0.210938
-9.22656 11.7578 0.328125
-4.4375 2.05469 0.09375
-4.5625 2.32031 0.101563
-4.73438 2.67188 0.109375
-4.97656 3.16406 0.125
-5.28125 3.79688 0.140625
-5.85156 4.98438 0.164063
-6.79688 6.92969 0.210938
-4.42969 2.07813 0.09375
-4.55469 2.34375 0.101563
-4.73438 2.70313 0.109375
-4.95313 3.17188 0.125
-5.26563 3.82813 0.140625
-5.80469 4.96875 0.164063
-6.75781 6.96875 0.210938
-4.42188 2.08594 0.09375
-4.53125 2.33594 0.101563
-4.71094 2.70313 0.109375
-4.92969 3.17969 0.125
-5.23438 3.82813 0.140625
-5.78125 5 0.164063
-6.72656 7.02344 0.210938
-7.80469 9.33594 0.359375
-4.40625 2.09375 0.09375
-4.52344 2.35156 0.101563
-4.67969 2.69531 0.109375
-4.91406 3.21094 0.117188
-5.21875 3.85938 0.140625
-5.74219 5.00781 0.164063
-6.67188 7.04688 0.210938
-7.75 9.39063 0.359375
-4.39844 2.10938 0.09375
-4.50781 2.35938 0.101563
-4.67188 2.72656 0.109375
-4.88281 3.19531 0.125
-5.1875 3.86719 0.140625
-5.71875 5.05469 0.164063
-6.64063 7.09375 0.210938
-7.6875 9.42188 0.359375
-4.39063 2.13281 0.0859375
-4.5 2.375 0.101563
-4.65625 2.74219 0.109375
-4.86719 3.21875 0.125
-5.14844 3.85938 0.140625
-5.69531 5.10156 0.164063
-6.58594 7.10156 0.210938
-7.64844 9.50781 0.359375
-4.36719 2.11719 0.09375
-4.47656 2.375 0.101563
-4.64063 2.75 0.109375
-6.82813 7.80469 0.96875
-4.84375 3.21875 0.125
-5.13281 3.88281 0.140625
-5.64844 5.08594 0.164063
-6.53906 7.13281 0.210938
-7.61719 9.61719 0.359375
-4.35156 2.11719 0.09375
-4.46094 2.38281 0.101563
-6.72656 7.71094 0.765625
-4.625 2.76563 0.109375
-4.82813 3.24219 0.125
-5.10156 3.89063 0.140625
-5.61719 5.10156 0.164063
-6.5 7.17188 0.210938
-7.57813 9.71094 0.359375
-4.32813 2.10938 0.09375
-4.44531 2.39063 0.101563
-4.60156 2.76563 0.109375
-6.69531 7.78125 0.960938
-4.8125 3.27344 0.117188
-5.08594 3.92969 0.140625
-5.57813 5.11719 0.164063
-6.45313 7.21094 0.210938
-4.32813 2.13281 0.09375
-4.4375 2.40625 0.101563
-4.58594 2.77344 0.109375
-4.78125 3.25781 0.125
-5.0625 3.92969 0.140625
-5.55469 5.14844 0.164063
-6.42188 7.26563 0.210938
-4.3125 2.14063 0.09375
-4.41406 2.39844 0.101563
-4.57031 2.78906 0.109375
-4.76563 3.26563 0.117188
-5.03125 3.9375 0.140625
-5.52344 5.16406 0.164063
-6.39063 7.34375 0.203125
-4.29688 2.14844 0.09375
-4.39063 2.39063 0.101563
-4.55469 2.80469 0.109375
-4.74219 3.28125 0.117188
-5.02344 3.99219 0.140625
-5.49219 5.1875 0.164063
-6.34375 7.35938 0.203125
-4.38281 2.42188 0.101563
-4.53125 2.80469 0.109375
-4.71875 3.29688 0.117188
-4.99219 3.99219 0.140625
-5.46094 5.21094 0.164063
-6.28906 7.38281 0.203125
-4.375 2.4375 0.101563
-4.50781 2.78906 0.109375
-4.70313 3.32031 0.117188
-4.96094 3.99219 0.140625
-5.41406 5.20313 0.164063
-4.35156 2.42969 0.101563
-4.5 2.82813 0.109375
-4.67969 3.32813 0.117188
-4.94531 4.03906 0.132813
-4.34375 2.45313 0.101563
-4.46875 2.80469 0.109375
-4.65625 3.33594 0.117188
-4.92188 4.05469 0.132813
-5.39063 5.35938 0.15625
-4.35156 2.53906 0.0859375
-4.46094 2.84375 0.109375
-4.63281 3.33594 0.117188
-4.89063 4.0625 0.132813
-4.45313 2.86719 0.101563
-4.60938 3.33594 0.117188
-4.45313 2.94531 0.09375
-3.82813 -2.25 0.0546875
-3.85938 -2.49219 0.078125
-3.84375 -2.21875 0.0625
-3.875 -2.48438 0.078125
-3.85156 -2.17969 0.0703125
-3.89844 -2.49219 0.078125
-3.85938 -2.15625 0.0703125
-3.92188 -2.5 0.078125
-4.07031 -3.44531 0.6875
-3.875 -2.125 0.078125
-3.9375 -2.50781 0.0703125
-3.89063 -2.13281 0.078125
-3.95313 -2.5 0.078125
-3.90625 -2.125 0.078125
-3.97656 -2.50781 0.0703125
-3.92969 -2.16406 0.0703125
-3.96094 -2.22656 0.0546875
-3.97656 -2.22656 0.0546875
-4.71094 -2.38281 0.0546875
-4.67188 -2.27344 0.0703125
-4.85938 -2.64844 0.0859375
-5.17188 -3.27344 0.0859375
-4.67969 -2.23438 0.078125
-4.86719 -2.60938 0.0859375
-5.17969 -3.24219 0.0859375
-4.6875 -2.21875 0.078125
-4.89844 -2.625 0.0859375
-5.20313 -3.22656 0.0859375
-4.70313 -2.21094 0.078125
-4.89844 -2.58594 0.0859375
-5.20313 -3.17188 0.09375
-5.67188 -4.07031 0.09375
-4.71875 -2.20313 0.078125
-4.92188 -2.58594 0.0859375
-5.21094 -3.13281 0.09375
-5.65625 -3.96875 0.101563
-10.2109 -12.5859 1.99219
-4.74219 -2.19531 0.078125
-4.92969 -2.55469 0.0859375
-5.23438 -3.11719 0.09375
-5.6875 -3.96094 0.101563
-10.1953 -12.3516 2.29688
-4.75 -2.17969 0.078125
-4.94531 -2.53125 0.09375
-5.25 -3.09375 0.09375
-5.70313 -3.92969 0.101563
-10.5 -12.7031 2.01563
-10.4688 -12.6406 2.35156
-4.75781 -2.16406 0.0859375
-4.94531 -2.49219 0.09375
-5.26563 -3.07031 0.09375
-5.71875 -3.88281 0.101563
-10.6094 -12.6797 2.01563
-10.7188 -12.875 2.39063
-4.78125 -2.16406 0.078125
-6.34375 -4.92969 0.679688
-4.96094 -2.48438 0.09375
-5.28125 -3.03906 0.101563
-5.74219 -3.86719 0.109375
-10.6094 -12.4844 2
-10.7734 -12.7734 2.38281
-6.28906 -4.75 0.546875
-4.78125 -2.125 0.0859375
-6.38281 -4.91406 0.679688
-4.97656 -2.46875 0.09375
-5.29688 -3.02344 0.101563
-5.75 -3.82031 0.109375
-10.7188 -12.4609 2
-10.9141 -12.8047 2.39844
-6.27344 -4.72656 0.28125
-4.80469 -2.125 0.0859375
-6.35938 -4.79688 0.679688
-4.99219 -2.44531 0.09375
-6.39063 -4.85156 0.8125
-5.32031 -3.01563 0.101563
-5.78125 -3.79688 0.109375
-10.8203 -12.4453 2.00781
-10.9688 -12.7031 2.39063
-4.79688 -2.08594 0.0859375
-6.375 -4.74219 0.679688
-5.01563 -2.45313 0.09375
-6.42969 -4.82813 0.8125
-5.32031 -2.96875 0.101563
-5.80469 -3.77344 0.109375
-10.9688 -12.4922 2.02344
-11.0313 -12.6016 2.38281
-6.35156 -4.70313 0.28125
-6.51563 -4.90625 0.546875
-4.82031 -2.07813 0.0859375
-6.40625 -4.71875 0.679688
-5.02344 -2.42188 0.101563
-6.46094 -4.8125 0.8125
-5.34375 -2.96094 0.101563
-5.82813 -3.75781 0.109375
-11.0859 -12.4922 2.02344
-11.2266 -12.7266 2.40625
-6.35938 -4.64844 0.28125
-6.53125 -4.84375 0.546875
-4.82813 -2.07031 0.0859375
-6.41406 -4.64844 0.671875
-5.03906 -2.40625 0.101563
-6.4375 -4.69531 0.804688
-5.35938 -2.92969 0.101563
-5.85156 -3.73438 0.109375
-11.1172 -12.3438 2.01563
-11.4688 -12.9297 2.44531
-6.36719 -4.57813 0.289063
-6.54688 -4.80469 0.546875
-4.84375 -2.05469 0.09375
-6.40625 -4.57031 0.671875
-5.0625 -2.39844 0.101563
-6.44531 -4.63281 0.804688
-5.375 -2.90625 0.109375
-5.86719 -3.71094 0.109375
-11.3906 -12.5938 2.05469
-11.5391 -12.8359 2.4375
-6.36719 -4.50781 0.289063
-6.39844 -4.55469 0.414063
-6.60156 -4.80469 0.546875
-4.85938 -2.03906 0.09375
-6.4375 -4.54688 0.671875
-5.0625 -2.36719 0.101563
-6.44531 -4.5625 0.804688
-5.39063 -2.89063 0.101563
-6.54688 -4.71875 0.945313
-5.90625 -3.70313 0.109375
-12.7109 -14.4844 2.29688
-11.7031 -12.8906 2.46094
-6.39844 -4.48438 0.289063
-6.39844 -4.48438 0.414063
-6.57813 -4.70313 0.546875
-4.86719 -2.02344 0.09375
-6.44531 -4.48438 0.671875
-5.08594 -2.36719 0.101563
-6.46875 -4.52344 0.796875
-5.40625 -2.86719 0.109375
-6.55469 -4.66406 0.945313
-5.91406 -3.66406 0.109375
-11.4688 -12.3281 2.03125
-6.45313 -4.50781 0.15625
-11.7578 -12.7734 2.45313
-6.42188 -4.45313 0.289063
-6.61719 -4.6875 0.546875
-4.88281 -2.01563 0.09375
-6.47656 -4.46875 0.671875
-5.09375 -2.34375 0.101563
-6.49219 -4.5 0.796875
-5.42969 -2.85156 0.109375
-6.5625 -4.60156 0.9375
-5.9375 -3.63281 0.117188
-6.46094 -4.44531 0.164063
-6.42969 -4.39844 0.289063
-6.4375 -4.40625 0.414063
-6.57031 -4.53906 0.546875
-4.89063 -2 0.09375
-6.5 -4.4375 0.671875
-5.11719 -2.33594 0.101563
-6.50781 -4.44531 0.796875
-5.4375 -2.82031 0.109375
-6.59375 -4.57813 0.9375
-5.96094 -3.61719 0.117188
-6.46094 -4.38281 0.164063
-6.46094 -4.375 0.289063
-6.46875 -4.32031 0.539063
-6.50781 -4.38281 0.671875
-5.13281 -2.33594 0.101563
-6.53906 -4.42188 0.796875
-5.46875 -2.82031 0.109375
-6.61719 -4.54688 0.9375
-5.96875 -3.57031 0.117188
-6.60938 -4.52344 0.15625
-6.5 -4.36719 0.289063
-6.5 -4.36719 0.414063
-6.49219 -4.28906 0.539063
-6.53125 -4.34375 0.664063
-5.14063 -2.29688 0.101563
-6.5625 -4.39063 0.796875
-5.48438 -2.80469 0.109375
-6.64063 -4.51563 0.9375
-6 -3.5625 0.117188
-6.97656 -5.00781 0.117188
-6.50781 -4.3125 0.289063
-6.50781 -4.25 0.539063
-6.55469 -4.32031 0.664063
-5.16406 -2.29688 0.101563
-6.57813 -4.35156 0.796875
-5.49219 -2.78125 0.109375
-6.02344 -3.53906 0.117188
-7.01563 -4.98438 0.117188
-6.5625 -4.32031 0.414063
-6.53125 -4.21875 0.539063
-6.57031 -4.27344 0.664063
-5.17188 -2.28125 0.101563
-6.60156 -4.3125 0.796875
-5.51563 -2.76563 0.109375
-6.03906 -3.51563 0.117188
-7.14063 -5.08594 1.14844
-7.03125 -4.92969 0.117188
-6.59375 -4.30469 0.289063
-6.51563 -4.1875 0.414063
-6.55469 -4.1875 0.539063
-6.59375 -4.24219 0.664063
-5.17969 -2.25781 0.101563
-6.60938 -4.27344 0.789063
-5.53125 -2.74219 0.109375
-6.05469 -3.48438 0.117188
-7.05469 -4.89063 0.125
-7.375 -5.34375 0.242188
-6.53906 -4.16406 0.414063
-6.57813 -4.15625 0.539063
-6.61719 -4.21094 0.664063
-5.20313 -2.25 0.101563
-6.64063 -4.24219 0.789063
-5.54688 -2.72656 0.109375
-6.07031 -3.45313 0.117188
-14.1406 -14.6328 2.39063
-7.09375 -4.86719 0.125
-7.45313 -5.36719 0.242188
-6.5625 -4.13281 0.421875
-6.61719 -4.14063 0.539063
-6.63281 -4.16406 0.664063
-5.21094 -2.22656 0.109375
-6.65625 -4.19531 0.789063
-5.5625 -2.71094 0.109375
-6.09375 -3.4375 0.117188
-13.8516 -14.0234 2.32031
-7.11719 -4.82813 0.125
-7.53906 -5.40625 0.242188
-6.57031 -4.08594 0.421875
-6.625 -4.09375 0.539063
-6.66406 -4.14844 0.664063
-5.21875 -2.21094 0.109375
-6.67969 -4.17188 0.789063
-5.57813 -2.6875 0.109375
-6.10938 -3.40625 0.117188
-13.9922 -14.0156 2.32813
-7.13281 -4.78125 0.125
-7.60938 -5.42969 0.234375
-6.60156 -4.0625 0.421875
-6.64844 -4.0625 0.539063
-5 -1.88281 0.101563
-6.67188 -4.10156 0.664063
-5.24219 -2.19531 0.109375
-6.69531 -4.125 0.789063
-5.59375 -2.67188 0.109375
-14.6953 -14.7422 2
-6.125 -3.36719 0.125
-13.9922 -13.8125 2.3125
-7.16406 -4.75 0.125
-7.60156 -5.32813 0.242188
-6.61719 -4.03125 0.421875
-6.66406 -4.02344 0.539063
-5.02344 -1.88281 0.09375
-6.69531 -4.07031 0.664063
-5.25 -2.17969 0.109375
-6.71094 -4.09375 0.789063
-5.60938 -2.64844 0.117188
-14.8516 -14.7266 2.00781
-6.14844 -3.35156 0.125
-14.0938 -13.7422 2.3125
-7.16406 -4.6875 0.125
-7.67188 -5.34375 0.242188
-6.64844 -4.00781 0.421875
-6.6875 -4.00781 0.539063
-5.01563 -1.85156 0.101563
-6.71094 -4.02344 0.664063
-5.27344 -2.17188 0.109375
-6.74219 -4.07031 0.789063
-5.625 -2.63281 0.117188
-15.2969 -15.1016 2.05469
-6.17188 -3.32813 0.125
-14.0625 -13.5078 2.28906
-7.19531 -4.65625 0.125
-7.67188 -5.27344 0.242188
-6.6875 -4 0.421875
-6.71094 -3.97656 0.539063
-5.03906 -1.84375 0.101563
-6.73438 -4 0.664063
-5.28125 -2.15625 0.109375
-6.75781 -4.02344 0.789063
-5.64844 -2.61719 0.117188
-15.5313 -15.1797 2.07031
-6.1875 -3.30469 0.125
-14.0859 -13.3359 2.28125
-7.20313 -4.60156 0.132813
-7.67969 -5.20313 0.242188
-6.6875 -3.94531 0.421875
-6.74219 -3.95313 0.539063
-5.04688 -1.82813 0.101563
-6.76563 -3.98438 0.664063
-5.28906 -2.13281 0.109375
-6.78906 -4.00781 0.789063
-5.64844 -2.58594 0.117188
-15.6016 -15.0547 2.0625
-6.21094 -3.28906 0.125
-14.0547 -13.1094 2.25781
-7.23438 -4.57031 0.132813
-7.71094 -5.16406 0.242188
-6.72656 -3.92969 0.421875
-6.76563 -3.92188 0.539063
-5.07031 -1.82813 0.101563
-6.79688 -3.96094 0.664063
-5.30469 -2.11719 0.109375
-6.83594 -4.00781 0.789063
-5.67188 -2.57031 0.117188
-15.7656 -15.0391 2.07031
-6.22656 -3.25781 0.125
-13.8906 -12.7188 2.21875
-7.24219 -4.51563 0.132813
-7.85156 -5.26563 0.234375
-6.75 -3.90625 0.421875
-6.78906 -3.89844 0.539063
-5.07813 -1.8125 0.101563
-6.82031 -3.9375 0.664063
-5.32031 -2.10156 0.109375
-6.85938 -3.98438 0.789063
-5.67969 -2.54688 0.117188
-13.9063 -12.5469 1.82031
-6.25 -3.23438 0.125
-13.9219 -12.5703 2.20313
-7.26563 -4.47656 0.132813
-7.89844 -5.24219 0.234375
-6.78125 -3.88281 0.421875
-6.8125 -3.86719 0.539063
-5.08594 -1.79688 0.101563
-6.875 -3.9375 0.664063
-5.33594 -2.09375 0.109375
-6.91406 -3.99219 0.789063
-5.70313 -2.53125 0.117188
-8.66406 -6.09375 1.14063
-6.27344 -3.21875 0.125
-13.9609 -12.4453 2.19531
-7.29688 -4.44531 0.132813
-7.79688 -5.04688 0.242188
-6.8125 -3.86719 0.421875
-6.85938 -3.86719 0.539063
-5.10156 -1.78125 0.101563
-6.92188 -3.94531 0.664063
-5.33594 -2.0625 0.109375
-6.94531 -3.96875 0.789063
-5.71875 -2.51563 0.117188
-8.71094 -6.05469 1.14063
-6.28125 -3.1875 0.125
-14 -12.3203 2.1875
-7.3125 -4.39844 0.132813
-7.82031 -5.00781 0.242188
-6.82813 -3.83594 0.421875
-6.88281 -3.83594 0.539063
-5.10938 -1.76563 0.101563
-6.98438 -3.95313 0.664063
-5.35938 -2.0625 0.109375
-6.99219 -3.96094 0.789063
-5.73438 -2.49219 0.117188
-6.30469 -3.16406 0.125
-14.0938 -12.25 2.1875
-7.34375 -4.375 0.132813
-7.875 -4.99219 0.242188
-6.9375 -3.90625 0.414063
-6.9375 -3.84375 0.539063
-5.13281 -1.76563 0.101563
-7.03125 -3.94531 0.664063
-5.36719 -2.03906 0.109375
-7.05469 -3.97656 0.796875
-5.75 -2.47656 0.117188
-6.32031 -3.13281 0.125
-14.1172 -12.1016 2.17969
-7.36719 -4.34375 0.132813
-9.82813 -7.17188 0.140625
-6.96875 -3.88281 0.414063
-6.98438 -3.84375 0.539063
-5.14063 -1.75 0.101563
-7.10156 -3.97656 0.671875
-5.38281 -2.03125 0.109375
-7.10156 -3.97656 0.796875
-5.75781 -2.45313 0.117188
-6.35156 -3.125 0.125
-7.38281 -4.28906 0.140625
-9.82813 -7.07031 0.148438
-7.03125 -3.83594 0.539063
-5.15625 -1.74219 0.101563
-7.14844 -3.97656 0.671875
-5.39844 -2.01563 0.109375
-7.16406 -3.99219 0.796875
-5.77344 -2.42969 0.117188
-6.35156 -3.07813 0.132813
-14.0859 -11.7266 2.14844
-7.41406 -4.26563 0.140625
-13.9375 -11.5625 2.49219
-9.85156 -6.99219 0.148438
-7.09375 -3.85938 0.539063
-5.16406 -1.72656 0.101563
-7.21875 -3.99219 0.671875
-5.40625 -1.99219 0.117188
-7.23438 -4.00781 0.804688
-5.78906 -2.41406 0.117188
-6.38281 -3.07031 0.125
-14.2969 -11.8047 2.17188
-7.41406 -4.21094 0.140625
-13.9844 -11.4609 2.49219
-9.85156 -6.89844 0.148438
-7.14063 -3.84375 0.539063
-5.17188 -1.71094 0.101563
-7.29688 -4.02344 0.671875
-5.42969 -1.99219 0.109375
-7.3125 -4.03906 0.804688
-5.80469 -2.39844 0.117188
-6.41406 -3.05469 0.125
-14.4766 -11.8359 2.1875
-7.44531 -4.17969 0.140625
-9.85156 -6.80469 0.148438
-7.22656 -3.89063 0.539063
-5.1875 -1.69531 0.101563
-7.375 -4.04688 0.679688
-5.42969 -1.96094 0.117188
-7.40625 -4.07813 0.8125
-5.82031 -2.38281 0.117188
-6.40625 -3.00781 0.132813
-14.3672 -11.5469 2.15625
-7.47656 -4.15625 0.140625
-9.86719 -6.71875 0.15625
-7.30469 -3.91406 0.546875
-5.19531 -1.6875 0.101563
-7.46875 -4.08594 0.679688
-5.45313 -1.95313 0.109375
-7.48438 -4.10938 0.820313
-5.82813 -2.35156 0.125
-6.42969 -2.99219 0.132813
-14.3828 -11.3984 2.14844
-7.5 -4.125 0.140625
-9.89063 -6.64844 0.15625
-7.375 -3.99219 0.414063
-7.40625 -3.96875 0.546875
-5.20313 -1.66406 0.101563
-7.57031 -4.14063 0.6875
-5.46875 -1.9375 0.109375
-7.60156 -4.17188 0.828125
-5.85156 -2.34375 0.125
-9.65625 -6.3125 1.20313
-6.4375 -2.96094 0.132813
-14.8906 -11.7656 2.21094
-7.50781 -4.07031 0.140625
-9.89063 -6.5625 0.15625
-5 -1.42969 0.101563
-7.52344 -4.03125 0.546875
-5.21875 -1.65625 0.101563
-7.72656 -4.24219 0.6875
-5.46875 -1.91406 0.117188
-7.74219 -4.25781 0.835938
-5.86719 -2.32813 0.125
-6.45313 -2.92969 0.132813
-14.9766 -11.7031 2.21094
-7.52344 -4.03125 0.140625
-9.91406 -6.49219 0.15625
-7.5 -4.00781 0.414063
-5.01563 -1.42969 0.09375
-7.58594 -4.03906 0.546875
-5.22656 -1.64063 0.101563
-8.82031 -5.28906 0.742188
-5.49219 -1.91406 0.117188
-5.875 -2.29688 0.125
-9 -5.46875 1.11719
-6.46875 -2.90625 0.132813
-15.0469 -11.6094 2.21094
-7.55469 -4 0.140625
-9.92969 -6.41406 0.15625
-7.65625 -4.10938 0.40625
-5.03125 -1.42188 0.09375
-7.75 -4.14063 0.546875
-5.23438 -1.625 0.101563
-8.83594 -5.23438 0.742188
-5.5 -1.89063 0.117188
-8.9375 -5.32813 0.929688
